ply
format ascii 1.0
element vertex 1473
property float x
property float y
property float z
end_header
-1.4640359 -2.4061437 -0.5322534
-1.6764797 -2.8208725 -0.53968376
-1.9388541 -3.3328152 -0.53595585
-2.4647865 -4.3614893 0.6198707
-2.2864332 -4.010809 -0.52192706
-3.5834498 -6.547356 1.0942328
-3.5869596 -6.549515 1.3565485
-3.5933437 -6.5572863 1.6232575
-3.471311 -6.3165913 -0.18047425
-3.5917485 -6.549465 1.8902566
-3.4597776 -6.289535 0.068070665
-3.3777747 -6.1272626 2.036284
-1.4786077 -2.4138758 -0.5358752
-2.1975574 -3.8108163 0.266212
-1.6889884 -2.8210328 -0.54103535
-1.9558654 -3.3373308 -0.5382441
-3.5984967 -6.525229 0.83358973
-2.2986054 -4.0001225 -0.52130264
-3.578076 -6.480944 1.0866755
-2.9376426 -5.2365975 -0.531997
-3.5907702 -6.500922 1.349978
-3.4890435 -6.3014655 -0.42895114
-3.5774765 -6.470524 1.606848
-3.4575934 -6.236058 -0.17639239
-3.5993729 -6.50829 1.8826082
-3.469765 -6.2551603 0.06852344
-3.3751793 -6.069935 2.0223095
-1.4834721 -2.402667 -0.5338041
-2.3112268 -3.9974277 0.27001986
-1.7113979 -2.840163 -0.5473334
-3.4658866 -6.216592 -1.1701897
-3.5937133 -6.4604087 0.8283606
-2.3143837 -3.9964068 -0.5219278
-3.5759697 -6.4216824 1.0800956
-2.948586 -5.2130475 -0.53004944
-3.593399 -6.4506173 1.3430972
-3.474237 -6.219378 -0.42197895
-3.5891776 -6.437922 1.6022667
-3.461822 -6.1911187 -0.17440459
-3.5797653 -6.41528 1.8614624
-3.4638677 -6.1906333 0.069570996
-3.3758202 -6.0195384 2.0104034
-1.4945335 -2.4034405 -0.5353607
-2.338124 -4.0149827 0.27050528
-1.7140495 -2.821201 -0.54373163
-1.9736089 -3.3148434 -0.53595626
-3.5745049 -6.3693047 0.82051307
-2.3273125 -3.9874315 -0.52161574
-3.5705354 -6.357338 1.0727823
-2.9859693 -5.240553 -0.5351672
-3.5734563 -6.3585157 1.3287014
-3.4716203 -6.162296 -0.4174466
-3.5775943 -6.3620086 1.5881447
-3.4617763 -6.1393023 -0.1719976
-3.57282 -6.348535 1.8470637
-3.461874 -6.1352525 0.07044242
-3.3928776 -6.001886 2.0083332
-1.4982044 -2.3906028 -0.5327716
-2.3564494 -4.0166492 0.27068132
-1.729103 -2.8264983 -0.5464306
-2.0087218 -3.3540502 -0.5458781
-3.5877988 -6.3420486 0.8189445
-2.3473365 -3.9925191 -0.5238054
-3.5856724 -6.333666 1.0710754
-2.9870927 -5.1995773 -0.5307786
-3.5821602 -6.322673 1.3243212
-3.4497156 -6.070242 -0.40942755
-3.5845437 -6.322836 1.5820414
-3.4555557 -6.0771017 -0.16896376
-3.5834746 -6.316475 1.8416638
-3.4471674 -6.0570927 0.07176986
-3.3970118 -5.9603825 1.9990147
-1.5054226 -2.3845942 -0.5322523
-2.3663573 -4.002349 0.2705429
-1.7387308 -2.8213964 -0.5464328
-3.5595534 -6.241229 0.56196386
-2.0164793 -3.341048 -0.5443488
-3.5223565 -6.1670156 0.8027345
-2.3517044 -3.967838 -0.52067786
-3.5662723 -6.2450776 1.06035
-3.01519 -5.2093806 -0.53346
-3.5713122 -6.250148 1.3133718
-3.4536843 -6.02752 -0.40629357
-3.5776238 -6.257589 1.5702112
-3.4576597 -6.030741 -0.16687025
-3.5914645 -6.2791157 1.8349146
-3.4548647 -6.0212836 0.07225702
-3.4795163 -6.065282 2.0342133
-1.515568 -2.3835568 -0.5332897
-2.3831592 -4.0001755 0.27064812
-1.7485741 -2.8161368 -0.54643327
-2.0077033 -3.296762 -0.53595614
-2.3580673 -3.9465098 -0.51817495
-3.5316737 -6.1285024 1.0457278
-3.0380652 -5.2083907 -0.5346798
-3.5407202 -6.1410437 1.295851
-3.3670893 -5.8162365 -0.38642168
-3.5361848 -6.1283307 1.5442573
-3.4569218 -5.9790125 -0.16446184
-3.4521627 -5.9659996 0.07313003
-3.5208478 -6.0913334 2.0456035
-1.5385784 -2.4062726 -0.5415712
-2.405664 -4.0084963 0.27096188
-1.7491173 -2.7937076 -0.5419355
-2.0453699 -3.3389053 -0.5466416
-2.23443 -3.6855123 -0.47249535
-3.6078973 -6.218196 1.0598658
-3.0495982 -5.186372 -0.5329715
-3.6092145 -6.216303 1.3114944
-3.2609906 -5.572369 -0.36324033
-3.5725281 -6.144394 1.5503656
-3.4463148 -5.909821 -0.16100839
-3.5682507 -6.1322517 1.802522
-3.4519525 -5.916093 0.07389667
-3.5513034 -6.0968156 2.0507796
-1.5562204 -2.418676 -0.5467479
-2.426353 -4.0131884 0.27120382
-1.7681971 -2.8055193 -0.54643404
-3.6084743 -6.17629 0.56018054
-2.0551362 -3.3291261 -0.54587865
-3.6335652 -6.2179537 0.81127596
-2.2453933 -3.67505 -0.47187296
-3.6115065 -6.1732903 1.0552318
-3.0734057 -5.1869717 -0.53443664
-3.6166868 -6.178492 1.3067997
-3.2756486 -5.5530386 -0.3623693
-3.6297848 -6.1981516 1.5648642
-3.4544637 -5.875806 -0.15964858
-3.4476135 -5.8592334 0.07480272
-3.5623634 -6.066569 2.0450854
-1.5497612 -2.3869734 -0.53846645
-2.4471145 -4.0177765 0.2714487
-1.7723819 -2.7898939 -0.5437322
-2.0611567 -3.3123908 -0.5435866
-2.2564576 -3.6644723 -0.47124407
-3.1023312 -5.1960006 -0.5371152
-3.2761602 -5.507291 -0.35888135
-3.4474623 -5.8135567 -0.15661314
-3.4444532 -5.8039117 0.075675055
-3.5589352 -6.008918 2.0311084
-1.5594413 -2.383835 -0.53898114
-2.457954 -4.002651 0.27130842
-1.7996217 -2.8149183 -0.5518301
-2.0780559 -3.3142638 -0.54549396
-2.2468507 -3.6156054 -0.46373844
-3.109787 -5.164643 -0.5341926
-3.2808306 -5.468257 -0.35609463
-3.4357157 -5.742422 -0.15305515
-3.4501405 -5.7641644 0.07623568
-3.5696604 -5.9764485 2.024894
-1.5681664 -2.3789759 -0.5389837
-2.4686515 -3.9875348 0.2711692
-1.7870206 -2.7683988 -0.54103345
-2.0910015 -3.309292 -0.54587805
-2.2270117 -3.549763 -0.45310062
-2.2795632 -3.6411033 -0.32117334
-3.2680707 -5.4000683 -0.35034114
-3.328846 -5.5046997 -0.13944931
-3.4399853 -5.6988096 0.077314675
-3.5773017 -5.941175 2.0176468
-1.5857468 -2.3912592 -0.5441604
-2.498918 -4.009524 0.27176383
-1.8079276 -2.7834742 -0.5464343
-2.106119 -3.3098001 -0.54740345
-2.210908 -3.4930923 -0.44402626
-2.287064 -3.6254892 -0.3199524
-3.2982101 -5.410529 -0.35243222
-3.3574097 -5.5115232 -0.14049624
-3.4031944 -5.5886946 0.079305604
-3.576562 -5.892791 2.0062609
-1.5891006 -2.378261 -0.5415696
-2.5125427 -4.001809 0.27176234
-1.8000474 -2.7476232 -0.538336
-2.1270769 -3.3204873 -0.55122113
-2.2139826 -3.470909 -0.44121286
-3.1082187 -5.037956 -0.5205426
-3.3116643 -5.391431 -0.35156322
-3.361293 -5.474857 -0.13892421
-2.6716223 -4.263302 0.10572159
-3.5553865 -5.8092656 1.9840026
-1.5885482 -2.3585587 -0.53691363
-2.532122 -4.004449 0.2719709
-1.8171456 -2.7558131 -0.5419362
-2.156931 -3.3463912 -0.55846876
-2.2326715 -3.4761522 -0.44340006
-2.339376 -3.6596532 -0.32677934
-3.3280168 -5.377478 -0.35121247
-3.3779256 -5.4607267 -0.13871722
-2.686126 -4.254988 0.105723225
-3.5587652 -5.769471 1.9751989
-1.605258 -2.369006 -0.54157156
-1.8246034 -2.7470253 -0.5410351
-2.200829 -3.3958743 -0.5710622
-2.2337568 -3.4504488 -0.43995878
-2.3211942 -3.5991023 -0.31922162
-3.3317032 -5.340847 -0.3485975
-2.707769 -4.260952 -0.06670739
-3.4215095 -5.488302 0.08066488
-3.5557272 -5.717676 1.9627763
-1.600122 -2.3407211 -0.53432554
-3.4445949 -5.507264 0.30265912
-1.8324631 -2.7379591 -0.540134
-2.1991296 -3.3650796 -0.56572235
-2.2560468 -3.4603446 -0.44309056
-2.2780213 -3.4956157 -0.30557314
-3.398304 -5.4073544 -0.13683152
-3.424982 -5.4492517 0.08122463
-3.5459304 -5.6540713 1.9467301
-1.6221743 -2.3591583 -0.5415733
-3.4318085 -5.4406137 0.3015437
-1.8402116 -2.7289119 -0.5392359
-2.2169735 -3.3682845 -0.5680096
-2.2661812 -3.449831 -0.4424624
-2.2912118 -3.4901857 -0.30581936
-2.369482 -3.6209097 -0.17621194
-3.4483447 -5.449778 -0.14007784
-3.5485203 -5.6144614 1.9379289
-1.6329437 -2.3595397 -0.5431253
-3.4264247 -5.3904 0.30074027
-1.849256 -2.7235796 -0.53923476
-2.2361395 -3.3752134 -0.5710643
-2.2886913 -3.4617755 -0.44590542
-2.3493497 -3.5618994 -0.31702757
-2.3692842 -3.5932546 -0.17412236
-3.4205277 -5.361811 -0.1353673
-3.349303 -5.238524 0.085063
-3.548381 -5.571889 1.9280957
-1.6239461 -2.3266892 -0.534326
-3.4391918 -5.3711905 0.3005647
-1.8633051 -2.7265677 -0.5414842
-2.2534504 -3.3786268 -0.57335466
-2.2881536 -3.4345145 -0.44215265
-2.33997 -3.51897 -0.31191054
-2.3671305 -3.5620718 -0.17167984
-3.4325979 -5.3406672 -0.13473952
-3.39594 -5.275904 0.08408606
-3.5485775 -5.529032 1.918259
-1.6270888 -2.3135526 -0.5317379
-3.430126 -5.313694 0.29962167
-1.8738204 -2.722544 -0.5419354
-2.2692838 -3.3782957 -0.5748804
-2.293005 -3.415485 -0.43995923
-2.3501983 -3.5082054 -0.3114251
-2.3795567 -3.5546129 -0.17168334
-3.4378211 -5.307243 -0.1333797
-3.2387173 -4.9737754 0.09001645
-3.6257713 -5.6133604 1.9482834
-1.6371541 -2.3119953 -0.5327727
-3.4206753 -5.2563415 0.29867807
-1.8853294 -2.7201512 -0.5428345
-2.2851295 -3.3779018 -0.5764065
-2.3028607 -3.4049141 -0.43933696
-2.3490357 -3.4787524 -0.30825514
-2.3960836 -3.5539293 -0.1723798
-3.4283113 -5.2499614 -0.1305536
-3.2487762 -4.951316 0.09026121
-3.6453328 -5.601507 1.9482827
-1.6472316 -2.310392 -0.5338077
-3.4254718 -5.2230015 0.29822537
-1.896849 -2.717707 -0.5437339
-2.2989607 -3.3740811 -0.5771706
-2.3250418 -3.4145343 -0.44246504
-2.3497758 -3.4527302 -0.30557543
-2.3606298 -3.468203 -0.16436069
-3.4330626 -5.216646 -0.12919384
-3.262917 -4.9356523 0.09036637
-1.6643925 -2.3202693 -0.53846693
-3.434243 -5.1965194 0.29790872
-1.8961089 -2.695304 -0.5392345
-2.32925 -3.3969588 -0.58403873
-2.3701036 -3.4610462 -0.45247516
-2.3420155 -3.4132342 -0.3009428
-2.3633027 -3.4455132 -0.16279358
-3.8874705 -5.906253 2.0518117
-1.65722 -2.2906415 -0.53070354
-3.3522704 -5.023866 0.29459313
-1.9096189 -2.69612 -0.5410373
-2.3514516 -3.4063158 -0.58785456
-2.396766 -3.477072 -0.45685717
-2.3528736 -3.4041786 -0.3007002
-2.373217 -3.434685 -0.16244343
-2.9439414 -4.349705 -0.07707006
-2.9537983 -4.3627067 0.10170793
-3.9080765 -5.893469 2.051812
-1.6744148 -2.3004205 -0.53535956
-3.2691119 -4.851862 0.29127675
-1.9159175 -2.6853116 -0.5396847
-2.3466673 -3.3722868 -0.5817521
-2.4151728 -3.4795635 -0.45873508
-2.3668458 -3.4001417 -0.3011876
-2.3746088 -3.4103293 -0.16070117
-3.9203973 -5.8675385 2.0476685
-1.6752355 -2.2839444 -0.53173625
-3.2689912 -4.8141685 0.29071853
-1.9024345 -2.6431582 -0.5297901
-2.319697 -3.3034484 -0.56763256
-2.4093957 -3.443534 -0.45341438
-2.3734093 -3.3842916 -0.29996842
-2.3790581 -3.3910534 -0.15948232
-2.56133 -3.6772993 -0.03656752
-3.9491313 -5.8676996 2.0518086
-1.69044 -2.2903326 -0.53535956
-3.2750528 -4.78668 0.2903682
-1.916869 -2.645559 -0.53203666
-2.3143687 -3.269648 -0.56152546
-2.4118612 -3.4209304 -0.45059806
-2.3820088 -3.371793 -0.2992369
-2.387668 -3.3785179 -0.15895697
-2.550544 -3.632106 -0.034263473
-3.0046995 -4.342461 0.101531
-3.9695787 -5.854716 2.051809
-1.6953077 -2.280362 -0.5338069
-3.2788258 -4.7558255 0.28995034
-1.9386989 -2.6593778 -0.53743684
-2.322599 -3.2574148 -0.5603784
-2.4152703 -3.4000092 -0.44809556
-2.3926992 -3.3626127 -0.2989935
-2.413436 -3.3927908 -0.16122514
-2.548112 -3.600474 -0.032797076
-2.8275163 -4.033261 0.10774405
-3.990005 -5.841645 2.0518095
-1.7074398 -2.2817578 -0.5358802
-3.2748156 -4.71325 0.2892851
-1.953246 -2.6616158 -0.5396848
-2.322245 -3.231972 -0.556182
-2.4099803 -3.3658352 -0.4430925
-2.4087262 -3.3617425 -0.29996932
-2.4187715 -3.375138 -0.16017877
-2.5508988 -3.5772963 -0.031858075
-2.5971324 -3.6464596 0.11559588
-1.7164507 -2.2782311 -0.5363953
-3.2738347 -4.6757784 0.28872612
-1.9635919 -2.6572418 -0.540136
-2.3345888 -3.2263184 -0.5565641
-2.4066424 -3.3350449 -0.43870988
-2.4345288 -3.375769 -0.30313885
-2.44033 -3.3825262 -0.16174594
-2.5568342 -3.5591555 -0.031229658
-2.594563 -3.614745 0.11608257
-3.5747516 -5.1163034 1.8281857
-1.7159308 -2.2601233 -0.5322568
-1.9696319 -2.6463246 -0.5387857
-2.3361058 -3.204231 -0.5531289
-2.4041169 -3.3060255 -0.43464366
-2.4516394 -3.3764467 -0.3043575
-2.4826012 -3.4215426 -0.16662683
-3.5867906 -5.1027427 1.3778633
-2.544968 -3.5144129 -0.028927803
-3.5784454 -5.086876 1.596458
-2.6014848 -3.5982647 0.11625943
-3.5700202 -5.0709105 1.8173152
-1.7299951 -2.2647552 -0.5353629
-1.9711225 -2.6290233 -0.53563917
-3.5652974 -5.045003 0.5081532
-2.3361902 -3.1806803 -0.5493145
-3.5772712 -5.0600266 0.7218437
-2.4055653 -3.283793 -0.43182644
-3.57741 -5.0571136 0.9355465
-2.4609337 -3.3655763 -0.30386955
-3.576651 -5.052841 1.1506702
-2.5063238 -3.4321616 -0.16854563
-3.5694964 -5.038904 1.3656542
-2.542596 -3.484881 -0.027565332
-3.5796187 -5.051092 1.5897094
-2.5883408 -3.5518398 0.11706167
-3.571272 -5.0353703 1.8095521
-1.7376915 -2.259664 -0.5353627
-2.638142 -3.614792 0.26715085
-1.9790164 -2.6214616 -0.5351872
-2.326441 -3.1423965 -0.54206187
-2.410303 -3.2664342 -0.4299508
-2.451667 -3.3264647 -0.2992401
-2.5071912 -3.4076743 -0.16680388
-3.6218526 -5.0795555 1.3778658
-2.545881 -3.4635198 -0.02673054
-2.584127 -3.5186281 0.11758555
-3.5953615 -5.033278 1.8126574
-1.7393247 -2.2446463 -0.53225523
-2.6321597 -3.5779235 0.26655722
-1.9807996 -2.6038759 -0.53204
-2.678099 -3.6442068 0.42126688
-2.324563 -3.1153266 -0.5374825
-2.6787784 -3.6428702 0.5750671
-2.410982 -3.242228 -0.42682198
-2.7018778 -3.6749644 0.73470306
-2.4513958 -3.300384 -0.2965572
-2.6887074 -3.6529646 0.88816583
-2.4893935 -3.354863 -0.16209514
-2.5471275 -3.4386554 -0.02568326
-2.6828017 -3.6394646 1.2036895
-2.5788612 -3.4836495 0.11814146
-2.6896324 -3.6472795 1.3690357
-1.7408628 -2.22965 -0.5291509
-2.631495 -3.5494606 0.2661372
-1.9922433 -2.6008806 -0.5329369
-2.70109 -3.6504102 0.42221087
-2.3246162 -3.0916312 -0.5336684
-2.6883128 -3.6292527 0.57454455
-2.4069421 -3.2116122 -0.4224414
-2.459659 -3.2876403 -0.2958279
-2.698196 -3.6394286 0.8872281
-2.489972 -3.3304486 -0.1603549
-2.686323 -3.6196508 1.0408913
-2.5467978 -3.4123812 -0.024530318
-2.6921794 -3.626089 1.2023373
-2.5819795 -3.4622483 0.11842035
-2.6990125 -3.633958 1.3674815
-1.7614713 -2.2436953 -0.53536177
-2.6267111 -3.516477 0.26561686
-1.9967068 -2.588444 -0.53113794
-2.6932952 -3.6122682 0.420325
-2.3285067 -3.0747662 -0.53137684
-2.6894505 -3.604412 0.5728002
-2.4023058 -3.1813436 -0.41806296
-2.6881926 -3.600362 0.7261702
-2.4529643 -3.2538016 -0.29192758
-2.6983435 -3.6130679 0.88378805
-2.494567 -3.312881 -0.15930676
-2.68205 -3.586956 1.0351648
-2.5449028 -3.3846953 -0.023275616
-2.704514 -3.6177084 1.2023389
-2.5836139 -3.4393768 0.11873536
-2.6983066 -3.6064062 1.3612701
-1.7647313 -2.2321205 -0.53329194
-2.623988 -3.4868689 0.26516193
-2.0055208 -2.5824318 -0.5311374
-2.6920643 -3.5840936 0.41907078
-2.317917 -3.0368314 -0.52412844
-2.684868 -3.571354 0.5701876
-2.4053671 -3.1625073 -0.41587138
-2.6859212 -3.57066 0.72300315
-2.455132 -3.2330856 -0.2899763
-2.6962075 -3.5834222 0.87972
-2.491288 -3.2837455 -0.1570438
-2.6843786 -3.563956 1.0317322
-2.5407214 -3.3536756 -0.021809893
-2.6849742 -3.5625992 1.1892905
-2.5784853 -3.406536 0.11925941
-2.689962 -3.5676322 1.3514359
-1.7790959 -2.2363167 -0.5363979
-2.625936 -3.4636958 0.26484805
-2.022274 -2.5874708 -0.53428805
-2.6796138 -3.5393322 0.41676465
-2.3151271 -3.0101585 -0.51954883
-2.686007 -3.5463881 0.56844294
-2.4107852 -3.146791 -0.41430783
-2.6837103 -3.5408552 0.7198315
-2.4449663 -3.1942928 -0.28534698
-2.6862428 -3.5423136 0.8734601
-2.494809 -3.2643843 -0.15582243
-2.6845264 -3.5376272 1.027533
-2.5410542 -3.329188 -0.020762434
-2.680766 -3.5299933 1.1825415
-2.5835395 -3.3884737 0.11946713
-2.6881092 -3.5383987 1.3447045
-1.7846854 -2.2277508 -0.5353606
-2.6323001 -3.4471312 0.26467383
-2.0346274 -2.586028 -0.5356401
-2.6828256 -3.5176716 0.41592807
-2.331222 -3.0109503 -0.52145797
-2.6801605 -3.5116549 0.5656544
-2.4025717 -3.1116233 -0.40898967
-2.686975 -3.519265 0.7178809
-2.4458902 -3.1719089 -0.28315216
-2.6782644 -3.5045717 0.8678308
-2.4868245 -3.2286963 -0.1528576
-2.6833827 -3.5097404 1.0229527
-2.5469458 -3.3129377 -0.020241726
-2.679691 -3.502267 1.177141
-2.5758975 -3.3523874 0.120059155
-2.6739078 -3.4918056 1.3322802
-1.7935631 -2.223917 -0.53587955
-2.6248329 -3.4108949 0.2640777
-2.0335882 -2.5653694 -0.53159046
-2.6790566 -3.4862056 0.41446334
-2.3428504 -3.0052283 -0.52183896
-2.6809769 -3.4867852 0.5639123
-2.4009519 -3.0862505 -0.40554702
-2.6844366 -3.4895585 0.71471196
-2.4501135 -3.1544266 -0.2816929
-2.6723375 -3.4701529 0.86282367
-2.4923625 -3.2126677 -0.15198646
-2.6775773 -3.4754674 1.0168465
-2.5481703 -3.2901423 -0.019297892
-2.6773458 -3.472986 1.1712941
-2.5783947 -3.3311105 0.12033909
-2.6760905 -3.4690497 1.3276209
-1.8113307 -2.2326849 -0.54053926
-2.620584 -3.3796659 0.26358998
-2.0268035 -2.536792 -0.5252912
-2.6831436 -3.4662437 0.41372928
-2.353324 -2.997864 -0.5218396
-2.6816354 -3.4619637 0.56216764
-2.4003124 -3.0625474 -0.4024185
-2.681706 -3.4599242 0.71154463
-2.4553788 -3.1385813 -0.28047204
-2.6787271 -3.4535725 0.86126065
-2.4909055 -3.1868856 -0.15007228
-2.6760821 -3.4476995 1.0122653
-2.5331042 -3.2445602 -0.016892098
-2.6838176 -3.4565 1.1690441
-2.5784466 -3.3066032 0.120690376
-2.6770124 -3.444756 1.3224467
-1.8280658 -2.2397766 -0.5446785
-2.6242669 -3.3599105 0.263344
-1.9182574 -2.365321 -0.47850364
-2.6801925 -3.436518 0.41236764
-2.3615036 -2.9872575 -0.5210758
-2.6810093 -3.4355469 0.5602513
-2.4029775 -3.0437095 -0.4002317
-2.6834152 -3.4368103 0.70935196
-2.4502075 -3.1081774 -0.27705923
-2.6747322 -3.422498 0.85687673
-2.4962401 -3.170884 -0.14919959
-2.6767159 -3.4231732 1.0084504
-2.5374641 -3.2267659 -0.016262688
-2.6721168 -3.4146135 1.1595973
-2.5830138 -3.2886386 0.1208981
-2.687907 -3.4346423 1.3219262
-1.8381191 -2.2373555 -0.5457161
-2.6266398 -3.3385713 0.26306382
-1.9071826 -2.332528 -0.47085282
-2.6734874 -3.4020464 0.41069245
-2.354679 -2.9559488 -0.5153501
-2.6835718 -3.4141333 0.5588556
-2.4076982 -3.0282018 -0.3986663
-2.6848068 -3.4138613 0.70715827
-2.4446635 -3.0779822 -0.27364686
-2.673769 -3.3964784 0.8534382
-2.4907992 -3.140485 -0.14675762
-2.681502 -3.405269 1.0061619
-2.5332859 -3.197831 -0.014904354
-2.6780088 -3.3984163 1.1573447
-2.5789719 -3.2595627 0.12135087
-2.682591 -3.4028087 1.3141617
-1.838758 -2.222628 -0.5426082
-2.626013 -3.3144026 0.26271537
-1.9149119 -2.3269763 -0.47085443
-2.6812577 -3.3890848 0.41037926
-2.3506925 -2.929801 -0.5107716
-2.6762347 -3.3801467 0.556065
-2.4119527 -3.0129764 -0.3971004
-2.6856637 -3.391236 0.70496196
-2.4478903 -3.0609865 -0.27218646
-2.6699882 -3.3675585 0.8493691
-2.4895372 -3.1168427 -0.14501685
-2.6789875 -3.3780468 1.0015821
-2.5368617 -3.1804855 -0.014275446
-2.6732845 -3.368193 1.1510463
-2.5757096 -3.232333 0.12177
-2.6825435 -3.3790262 1.3089885
-1.8313684 -2.1969805 -0.53587884
-2.6147168 -3.2756834 0.26205423
-1.9261174 -2.3260853 -0.47220406
-2.683235 -3.3679316 0.4095418
-2.3559468 -2.9163032 -0.5092451
-2.6724427 -3.350914 0.55379933
-2.4059296 -2.9831917 -0.3927219
-2.686727 -3.3684042 0.702771
-2.451373 -3.0437527 -0.27072486
-2.6722777 -3.3463798 0.846866
-2.48155 -3.0832567 -0.14222798
-2.6675973 -3.3378012 0.9939468
-2.545594 -3.1692138 -0.01406713
-2.6758893 -3.3470385 1.1474462
-2.581178 -3.2160068 0.12194633
-2.6728418 -3.3407078 1.2991502
-1.8405534 -2.192681 -0.53639776
-2.6137288 -3.2491882 0.26166993
-1.9334848 -2.3183053 -0.47175285
-2.676698 -3.3331506 0.40786815
-2.3585079 -2.897427 -0.506577
-2.6776528 -3.332317 0.55275285
-2.404013 -2.9576912 -0.38928133
-2.6697314 -3.3193684 0.69667566
-2.4566517 -3.0276089 -0.2695051
-2.6751895 -3.3246837 0.8443644
-2.4904835 -3.071795 -0.1418806
-2.6635635 -3.3067057 0.98860556
-2.5382912 -3.134967 -0.01239169
-2.6766152 -3.3223648 1.1429473
-2.577569 -3.1864374 0.12239814
-2.677071 -3.320856 1.2955277
-1.8520138 -2.191459 -0.53795254
-2.6208456 -3.2340407 0.26152948
-1.9430896 -2.3136697 -0.47220346
-2.6698527 -3.2985277 0.40619344
-2.3643634 -2.8833792 -0.5050491
-2.6790757 -3.3090167 0.5511834
-2.4041483 -2.9355247 -0.38646597
-2.6675563 -3.2913973 0.6937503
-2.4510427 -2.9972327 -0.2660929
-2.6789181 -3.3047712 0.84217197
-2.4967628 -3.057276 -0.1411813
-2.6695602 -3.2900982 0.9866981
-2.5352387 -3.1074476 -0.011135779
-2.6710727 -3.2901387 1.1362015
-2.5829544 -3.1700463 0.12257102
-2.6854098 -3.3075068 1.2939732
-1.8642617 -2.192013 -0.5400219
-2.626167 -3.217668 0.26135573
-1.9639386 -2.3249092 -0.47715148
-2.6670675 -3.2707722 0.4049365
-2.3580267 -2.853872 -0.49970606
-2.6834872 -3.2908742 0.55013657
-2.4108505 -2.9231849 -0.38552576
-2.6719298 -3.2733324 0.6922882
-2.4532018 -2.9783356 -0.2643872
-2.675115 -3.2756221 0.83810604
-2.4955285 -3.0333853 -0.13943776
-2.6728299 -3.270561 0.9840257
-2.5413039 -3.0929976 -0.010717014
-2.672071 -3.2675548 1.1321503
-2.5796728 -3.1425943 0.12298954
-2.6750088 -3.2695093 1.2841411
-1.8580201 -2.167756 -0.533811
-2.6229842 -3.1901152 0.26093397
-1.9813443 -2.3313806 -0.48075208
-2.6640341 -3.2431393 0.4036779
-2.3561256 -2.8307998 -0.49589118
-2.6781173 -3.260081 0.54769754
-2.410253 -2.9014485 -0.38271132
-2.6736476 -3.2522337 0.69033885
-2.4479337 -2.9500637 -0.26121822
-2.6649883 -3.2388067 0.8324723
-2.489147 -3.003335 -0.13699932
-2.6745396 -3.249676 0.98097086
-2.5362325 -3.064372 -0.009355059
-2.6714506 -3.243686 1.1276523
-2.5602922 -3.094661 0.12386174
-2.6756048 -3.2473495 1.27948
-1.8710115 -2.1700852 -0.5363984
-2.6167154 -3.1598186 0.2604448
-2.0031378 -2.3442621 -0.48615143
-2.6699739 -3.2286897 0.40326214
-2.360778 -2.8174846 -0.4943636
-2.6721299 -3.2296915 0.5452567
-2.4032161 -2.8721435 -0.37833154
-2.6772525 -3.234624 0.6888761
-2.4481428 -2.9300373 -0.25926968
-2.6685817 -3.221274 0.83059794
-2.4822917 -2.973587 -0.13456029
-2.6782105 -3.2321715 0.978684
-2.5439777 -3.0535426 -0.009145819
-2.6763263 -3.2278178 1.1254005
-2.5657248 -3.0805557 0.1240039
-2.661901 -3.2068799 1.2686102
-1.8793627 -2.1661983 -0.5369176
-2.6102836 -3.1295898 0.25995702
-2.0050447 -2.330607 -0.48389965
-2.671074 -3.2078276 0.40242428
-2.3630667 -2.8009853 -0.4920746
-2.6660721 -3.1992986 0.54281634
-2.405682 -2.8554142 -0.3764528
-2.6737146 -3.2074265 0.6859517
-2.4436023 -2.903597 -0.25634384
-2.6710877 -3.2020307 0.8284051
-2.4827056 -2.953277 -0.13316351
-2.668964 -3.1973028 0.9721961
-2.5398417 -3.0266027 -0.00789164
-2.6648932 -3.1900208 1.1168544
-2.5689669 -3.063038 0.12421117
-2.6623318 -3.1847286 1.2639503
-1.8892618 -2.1635225 -0.5379512
-2.6114907 -3.1085691 0.25967863
-2.0119898 -2.3228722 -0.48345292
-2.6689239 -3.1818514 0.40127182
-2.3656816 -2.7841868 -0.48978516
-2.6723914 -3.1844656 0.542118
-2.4096398 -2.8399801 -0.3748893
-2.668016 -3.1768255 0.6825391
-2.4464896 -2.8864167 -0.25488162
-2.666647 -3.1731205 0.8243369
-2.4905822 -2.9422548 -0.13281472
-2.6526585 -3.1529438 0.96341836
-2.5370347 -3.0011048 -0.006741248
-2.666537 -3.1691492 1.1132545
-2.568701 -3.0405934 0.12452595
-2.6687381 -3.170108 1.2618788
-1.8968004 -2.1577463 -0.5379522
-2.613785 -3.0891738 0.25943232
-2.0272138 -2.3259332 -0.48615304
-2.6629534 -3.1511927 0.39980653
-2.366999 -2.7658556 -0.48711398
-2.674975 -3.1649032 0.5409001
-2.4110966 -2.8214304 -0.3727005
-2.6766593 -3.1651833 0.6820487
-2.4432156 -2.861398 -0.25220034
-2.6584015 -3.1395981 0.81933033
-2.4850147 -2.9138668 -0.13054812
-2.6660407 -3.1476085 0.964182
-2.523086 -2.961441 -0.004647599
-2.660905 -3.139061 1.1069554
-2.5646265 -3.0134504 0.124943554
-2.669153 -3.1478484 1.2572224
-1.8984103 -2.1443024 -0.5353619
-2.6172118 -3.0713708 0.2592253
-2.0401003 -2.3258302 -0.48795068
-2.6690502 -3.1363878 0.3993884
-2.3922849 -2.7785704 -0.49207345
-2.6652536 -3.129608 0.5379352
-2.408826 -2.798216 -0.36957014
-2.6730938 -3.1378262 0.679124
-2.4507596 -2.8505418 -0.2517151
-2.6572359 -3.1155221 0.816205
-2.4805086 -2.8871198 -0.128459
-2.6649728 -3.123605 0.96036583
-2.5309622 -2.9502878 -0.004436578
-2.6539109 -3.1075017 1.1002071
-2.5665438 -2.9942548 0.12518893
-2.662338 -3.1164658 1.2494549
-1.9094471 -2.143063 -0.5369175
-2.604537 -3.0330973 0.25856027
-2.060196 -2.3348877 -0.4924506
-2.6713722 -3.1168668 0.39865318
-2.5143595 -2.9149246 -0.5275638
-2.6614366 -3.1022797 0.535844
-2.406412 -2.775059 -0.36644235
-2.6693537 -3.110544 0.67620075
-2.4570239 -2.8381107 -0.2509819
-2.6644382 -3.102394 0.8152659
-2.4795184 -2.8651543 -0.12688997
-2.6589136 -3.0934741 0.9550233
-2.530161 -2.9281142 -0.0034952308
-2.661132 -3.094451 1.098856
-2.5695755 -2.976667 0.12539746
-2.6624706 -3.0943024 1.244797
-1.8954355 -2.10987 -0.52759904
-2.6077023 -3.0153785 0.2583516
-2.063521 -2.3223808 -0.49065137
-2.6698968 -3.092648 0.3976087
-2.5318089 -2.9162138 -0.5298548
-2.6673288 -3.087532 0.5351453
-2.4087584 -2.758155 -0.36456716
-2.6580975 -3.0739584 0.6718119
-2.4583228 -2.8194268 -0.24927692
-2.6618118 -3.0768306 0.81182176
-2.4907434 -2.8588724 -0.127064
-2.6539025 -3.0649552 0.9500602
-2.5230575 -2.8981347 -0.0020317968
-2.6646838 -3.076787 1.0961576
-2.5675707 -2.952805 0.12574656
-2.6660821 -3.0767152 1.2416902
-1.8560305 -2.0449939 -0.50741076
-2.6082776 -2.9945488 0.25807074
-2.074033 -2.31905 -0.4915504
-2.6633086 -3.0622256 0.396141
-2.5370932 -2.9020355 -0.52832705
-2.6706595 -3.0696678 0.53409946
-2.462551 -2.8062851 -0.3758282
-2.6589382 -3.0530527 0.6698618
-2.4521084 -2.7914433 -0.24610785
-2.6639352 -3.057523 0.8096314
-2.4883177 -2.8353877 -0.12532201
-2.6609175 -3.051894 0.9489166
-2.5269449 -2.8823223 -0.0015067244
-2.6608555 -3.0499911 1.0907569
-2.5679045 -2.9321342 0.12602493
-2.6683855 -3.0576386 1.2380688
-1.8547314 -2.0287552 -0.5037868
-2.6137347 -2.9799964 0.25793272
-2.0881956 -2.3202405 -0.4937991
-2.6627781 -3.0396833 0.39519843
-2.549662 -2.8970568 -0.5290899
-2.6714215 -3.0486948 0.5327067
-2.6412134 -3.0099685 -0.41869292
-2.6596751 -3.032169 0.66791254
-2.4556465 -2.7759395 -0.24488874
-2.6486988 -3.0166264 0.8030628
-2.4907396 -2.818174 -0.12427623
-2.6592994 -3.0280793 0.9450973
-2.5320048 -2.868072 -0.001087726
-2.6605346 -3.027815 1.0867089
-2.561885 -2.9036827 0.1264787
-2.6693902 -3.0370665 1.2339251
-1.8545438 -2.0140617 -0.5006805
-2.6140988 -2.9592156 0.25765353
-2.0682092 -2.2788262 -0.48345113
-2.6658607 -3.0218635 0.39457038
-2.082513 -2.2952616 -0.38102776
-2.668309 -3.0231054 0.530788
-2.6479874 -2.9969451 -0.41775173
-2.6665049 -3.0190609 0.66718215
-2.4765203 -2.7821012 -0.24708462
-2.6554916 -3.0035799 0.80212307
-2.4868133 -2.7932248 -0.122356825
-2.6575327 -3.0043235 0.94128317
-2.5307202 -2.8460512 -0.00014621772
-2.6576307 -3.0026538 1.0817612
-2.5581944 -2.8784323 0.12686184
-2.6581407 -3.0014963 1.2246071
-1.8688554 -2.0174155 -0.5037889
-2.606814 -2.92913 0.25716472
-2.0504148 -2.2406056 -0.47400448
-2.6688616 -3.004048 0.39394292
-2.0756927 -2.2704942 -0.3764472
-2.6638064 -2.9960167 0.5286949
-2.6435173 -2.97009 -0.41399997
-2.6657877 -2.9966774 0.6649864
-2.6549697 -2.9824514 -0.2799872
-2.6609917 -2.9889784 0.80087066
-2.4852586 -2.7714262 -0.12079082
-2.6568797 -2.9821308 0.9378478
-2.5368693 -2.833373 0.00016733656
-2.6607342 -2.9851048 1.0790586
-2.560671 -2.8609943 0.12707484
-2.6576476 -2.9795277 1.2199506
-1.8795446 -2.016205 -0.50534195
-2.6031349 -2.9037848 0.25678068
-2.0397723 -2.2115932 -0.46725565
-2.6667397 -2.9800406 0.39289615
-2.0836363 -2.26404 -0.37644577
-2.6667411 -2.978227 0.5276484
-2.641442 -2.9463186 -0.41086906
-2.65873 -2.966596 0.6615738
-2.6616817 -2.9693143 -0.27925578
-2.6640046 -2.971246 0.7989959
-2.489974 -2.7573123 -0.120094225
-2.6512375 -2.9538126 0.93288606
-2.526641 -2.8004894 0.0018416096
-2.6577055 -2.9599228 1.0741118
-2.5669844 -2.84811 0.1271767
-2.6608493 -2.9619634 1.2168429
-1.9014541 -2.0282369 -0.5115537
-2.6084414 -2.8891137 0.25663954
-2.0452037 -2.2021155 -0.46635768
-2.6609159 -2.9512587 0.39153534
-2.5365944 -2.7990172 -0.5126816
-2.667269 -2.9571955 0.5262532
-2.6457014 -2.9300647 -0.4093067
-2.6605105 -2.947175 0.65987
-2.6571639 -2.9422202 -0.27633232
-2.6670969 -2.953387 0.7971164
-2.5213506 -2.775386 -0.12305716
-2.656806 -2.939089 0.9313581
-2.531572 -2.7861106 0.0022610913
-2.66457 -2.9467268 1.072759
-2.5708084 -2.8320353 0.12735038
-2.6603801 -2.939851 1.2121857
-1.914851 -2.0297189 -0.5141393
-2.6136298 -2.8744776 0.25649935
-2.0480528 -2.189669 -0.4645587
-2.6586282 -2.927263 0.3904898
-2.6077907 -2.8649983 -0.5313805
-2.6675057 -2.9363413 0.5248608
-2.659753 -2.9261565 -0.4102444
-2.6632133 -2.9295037 0.6584059
-2.657285 -2.9215288 -0.2743816
-2.673572 -2.9403565 0.796179
-2.661906 -2.9254591 -0.14100857
-2.6682014 -2.9322224 0.93174165
-2.538608 -2.7751153 0.0024710228
-2.66721 -2.9293754 1.0700605
-2.5651667 -2.8055642 0.12777002
-2.6852026 -2.949406 1.2183963
-1.9376378 -2.0434487 -0.52087045
-2.6142006 -2.8558185 0.2562564
-2.0602942 -2.1896408 -0.4663553
-2.6644936 -2.914609 0.390176
-2.6084871 -2.8465595 -0.52871287
-2.6593804 -2.9068322 0.52241915
-2.6656535 -2.913552 -0.409307
-2.6665647 -2.913815 0.65718806
-2.6593363 -2.9043374 -0.2729211
-2.6580093 -2.9019182 0.7899224
-2.6537285 -2.8959825 -0.1385706
-2.6716278 -2.9166043 0.929833
-2.545242 -2.7643993 0.002677146
-2.663177 -2.9048436 1.0651116
-2.5680532 -2.7901516 0.127945
-2.659054 -2.8982756 1.203383
-1.9890592 -2.091117 -0.5395054
-2.605693 -2.8264494 0.25576732
-2.0400355 -2.150702 -0.45645857
-2.6639378 -2.8942525 0.38933644
-2.576362 -2.7889733 -0.5161166
-2.6563013 -2.8834372 0.52067554
-2.6525688 -2.8781428 -0.40367636
-2.6661463 -2.8934608 0.6552374
-2.6627364 -2.8885508 -0.27170196
-2.6639912 -2.8891835 0.7889819
-2.650709 -2.8725255 -0.1368281
-2.6638303 -2.8872838 0.92449033
-2.6625862 -2.8849568 -0.00611411
-2.670556 -2.8935752 1.0642118
-2.5659864 -2.768401 0.12825976
-2.6602557 -2.8796215 1.1997594
-2.0100527 -2.1012309 -0.5451983
-2.597495 -2.796765 0.25527877
-1.9897134 -2.075893 -0.43576443
-2.6663005 -2.8766036 0.3887103
-2.5632842 -2.7537913 -0.50924927
-2.6612144 -2.8688836 0.5199806
-2.656229 -2.8621483 -0.40210885
-2.660859 -2.8667688 0.652312
-2.6638358 -2.8694537 -0.26999697
-2.6651375 -2.8701339 0.7867918
-2.655577 -2.8579972 -0.1361302
-2.6561437 -2.8578112 0.9191464
-2.6481261 -2.8475082 -0.0041237264
-2.6730914 -2.876137 1.0615137
-2.5795188 -2.7648294 0.12815474
-2.661556 -2.8608248 1.1961385
-2.0223768 -2.1009223 -0.5472712
-2.6072476 -2.7885067 0.25527638
-1.9742423 -2.0430274 -0.42766663
-2.66212 -2.8513494 0.38755572
-2.5665588 -2.7381482 -0.5073421
-2.6686776 -2.857332 0.51962864
-2.6534607 -2.8385952 -0.3989837
-2.652902 -2.8370743 0.6488995
-2.6558976 -2.8397412 -0.26658493
-2.6688244 -2.8540483 0.7852269
-2.6578853 -2.8403554 -0.13508505
-2.662392 -2.8447769 0.9180008
-2.65558 -2.835934 -0.003914934
-2.6604831 -2.8408186 1.0534155
-2.6035674 -2.7732558 0.12777117
-2.6666608 -2.8463404 1.1940653
-2.027373 -2.0915844 -0.5462361
-2.6068122 -2.7678518 0.25499955
-1.9790095 -2.0338378 -0.42676675
-2.6580207 -2.8259652 0.38640395
-2.6672225 -2.8349946 0.51806015
-2.6610343 -2.8269298 -0.39835644
-2.6617515 -2.826902 0.6486567
-2.6569996 -2.8205194 -0.26487654
-2.6648765 -2.8288355 0.7817857
-2.6602502 -2.8226025 -0.13403687
-2.6674457 -2.8301194 0.9164767
-2.6709204 -2.8333213 -0.0043348083
-2.6642888 -2.8247352 1.0511631
-2.657794 -2.816332 0.12658384
-2.6780946 -2.8390903 1.1945846
-2.03232 -2.082243 -0.5452007
-2.612758 -2.7548358 0.25489378
-1.9964252 -2.0394275 -0.4303666
-2.661526 -2.8097842 0.38588142
-2.597558 -2.7348568 -0.51077545
-2.6707327 -2.818836 0.5171905
-2.6800432 -2.8288167 -0.40054587
-2.676891 -2.824349 0.6496309
-2.673397 -2.8195004 -0.26609588
-2.6735003 -2.8188033 0.78147256
-2.6701257 -2.8140967 -0.13403715
-2.690166 -2.836458 0.92029184
-2.6729522 -2.8157506 -0.0037070739
-2.6766577 -2.8192177 1.0520631
-2.6727982 -2.8139558 0.12644185
-2.6803367 -2.821849 1.1914773
-2.0229378 -2.0571532 -0.53847045
-2.6273687 -2.7527716 0.25503412
-2.0059135 -2.0363698 -0.431265
-2.682869 -2.8150828 0.38682267
-2.1587386 -2.2110822 -0.3779749
-2.685546 -2.8165488 0.5178856
-2.6922524 -2.8234656 -0.40117392
-2.6825876 -2.811531 0.6488982
-2.6986172 -2.8291624 -0.26902047
-2.6934593 -2.8224123 0.7839744
-2.6849248 -2.8118098 -0.13473435
-2.6972322 -2.8251283 0.91952765
-2.693019 -2.8194904 -0.004543522
-2.6926448 -2.8182414 1.0543145
-2.695504 -2.8207223 0.12609275
-2.6924708 -2.8164265 1.1925128
-2.0375526 -2.0597956 -0.5415758
-2.6985838 -2.8153791 0.2566719
-2.0077143 -2.024461 -0.4294643
-2.6964042 -2.8112328 0.3871363
-2.1714518 -2.2104158 -0.3795024
-2.7004106 -2.8141584 0.51858383
-2.7045066 -2.818017 -0.4017988
-2.6948223 -2.8061233 0.6493875
-2.7135408 -2.826675 -0.26999772
-2.7122483 -2.8243625 0.7861662
-2.70771 -2.818361 -0.13647716
-2.7056448 -2.8151705 0.9191476
-2.704035 -2.8125153 -0.0046497537
-2.715199 -2.8244078 1.0588131
-2.7157776 -2.8242443 0.12581486
-2.7149322 -2.8224444 1.1976905
-2.0370765 -2.0447955 -0.5384723
-2.7242584 -2.8247771 0.25709257
-2.0225005 -2.0270417 -0.43216673
-2.7154496 -2.8131177 0.38786876
-2.1687758 -2.1918645 -0.37644863
-2.7207642 -2.8174963 0.5199795
-2.7273958 -2.8242023 -0.4049284
-2.7124867 -2.806456 0.65084934
-2.7260232 -2.8209882 -0.2704839
-2.7299404 -2.8245885 0.78804326
-2.7267663 -2.820174 -0.13769822
-2.7258577 -2.8183062 0.92219913
-2.7204528 -2.8113697 -0.0051715295
-2.7250493 -2.8157365 1.0588124
-2.7335722 -2.8245618 0.12560484
-2.740129 -2.8311434 1.2039031
-2.0621395 -2.0587442 -0.54571867
-2.7354243 -2.8175812 0.25712568
-2.0347342 -2.0266335 -0.43396458
-2.7292244 -2.8089387 0.3881834
-2.1594725 -2.166022 -0.37148777
-2.7385132 -2.817757 0.52102464
-2.7437928 -2.8228831 -0.40649205
-2.73808 -2.815616 0.6537723
-2.7332144 -2.8093197 -0.2699951
-2.7424037 -2.8188298 0.7886671
-2.7392387 -2.8144495 -0.13804713
-2.7513287 -2.8272147 0.9267777
-2.7435205 -2.8176126 -0.006219294
-2.7322662 -2.8041296 1.0579127
-2.7500575 -2.823306 0.12542935
-2.7499902 -2.8223956 1.2039021
-2.0564535 -2.037948 -0.54054147
-2.7545722 -2.8192818 0.25737226
-2.0495887 -2.029066 -0.4366642
-2.7509947 -2.8136246 0.38912714
-2.1670244 -2.1592977 -0.37148827
-2.7536507 -2.8149467 0.52171946
-2.760218 -2.8214774 -0.4080562
-2.7584856 -2.8187022 0.65572363
-2.761539 -2.8213003 -0.27340704
-2.7548678 -2.8130076 0.7892945
-2.7570245 -2.8146036 -0.13909309
-2.7690456 -2.827193 0.92906964
-2.7680018 -2.8252103 -0.0073717455
-2.76025 -2.8157191 1.0642105
-2.7612376 -2.8160028 0.12539713
-2.7598324 -2.8136034 1.203901
-2.055805 -2.0229683 -0.53743666
-2.763055 -2.8089964 0.25733775
-2.064476 -2.0314248 -0.43936425
-2.7701454 -2.815233 0.3898579
-2.160101 -2.1364987 -0.3672894
-2.7634556 -2.8061514 0.52172256
-2.7700472 -2.8126574 -0.4080572
-2.7762744 -2.8187408 0.6571874
-2.7819977 -2.8242748 -0.275359
-2.7752452 -2.8159478 0.7917949
-2.772166 -2.8117146 -0.13979095
-2.784152 -2.8241765 0.93059564
-2.7898836 -2.829711 -0.008313952
-2.7805011 -2.8184762 1.0678098
-2.7764049 -2.8131194 0.12525606
-2.7825782 -2.8191264 1.209079
-2.0706365 -2.0251997 -0.5405412
-2.7795618 -2.8075697 0.25750867
-2.0689423 -2.0221436 -0.43846256
-2.796055 -2.8241313 0.3911144
-2.170187 -2.1326814 -0.3680535
-2.7866228 -2.8120732 0.5234654
-2.7718923 -2.7950163 -0.40617713
-2.787438 -2.8113265 0.6574296
-2.7998478 -2.8241928 -0.27682203
-2.795686 -2.8187692 0.79429823
-2.787326 -2.8087466 -0.14048924
-2.7966404 -2.818171 0.9313596
-2.7970638 -2.8178236 -0.008104266
-2.8008142 -2.8211153 1.0714084
-2.794285 -2.8131132 0.12504815
-2.7976077 -2.8159375 1.2111466
-2.0724864 -2.01308 -0.5384707
-2.805499 -2.816426 0.2579294
-2.0759728 -2.0157542 -0.43846583
-2.8004763 -2.8093152 0.3906968
-2.184203 -2.133204 -0.3699601
-2.8071125 -2.8149824 0.5248586
-2.797553 -2.8037167 -0.40993217
-2.805191 -2.8112738 0.65889335
-2.8122828 -2.8182414 -0.2773088
-2.816073 -2.8215773 0.7968019
-2.8050756 -2.8087492 -0.14153545
-2.8142939 -2.818022 0.9336477
-2.8134983 -2.816357 -0.008627253
-2.811823 -2.8137152 1.0718577
-2.8133914 -2.8146336 0.124802314
-2.8203077 -2.8213787 1.2163246
-2.0832486 -2.0110905 -0.540023
-2.8231893 -2.8165033 0.25813898
-2.0867796 -2.0137894 -0.43981245
-2.8127313 -2.8035123 0.39090613
-2.1887982 -2.123672 -0.3691975
-2.8301663 -2.8208847 0.5266022
-2.7562802 -2.7397244 -0.39804387
-2.8228128 -2.8112798 0.6603544
-2.8151443 -2.8021533 -0.27609065
-2.8283422 -2.8156867 0.7974267
-2.8281164 -2.8146508 -0.14327846
-2.8345137 -2.8207858 0.9367018
-2.8325434 -2.8178537 -0.0093610175
-2.8266718 -2.8106651 1.0736601
-2.8283813 -2.8117278 0.12466243
-2.8403747 -2.8239307 1.2204663
-2.097946 -2.0133126 -0.54313046
-2.8409078 -2.816493 0.25834802
-2.150522 -2.068999 -0.4591584
-2.8317745 -2.8049726 0.39163715
-2.1907094 -2.1112287 -0.36767027
-2.8397965 -2.8120024 0.52660245
-2.7079437 -2.6687505 -0.3845914
-2.839174 -2.8096874 0.661571
-2.8314874 -2.8005748 -0.27730766
-2.8460505 -2.8154676 0.799306
-2.8377788 -2.8057265 -0.14327864
-2.8548822 -2.8233497 0.93975407
-2.8517432 -2.8191469 -0.010092763
-2.8456252 -2.8117206 1.0768089
-2.8435128 -2.8086302 0.12452088
-2.844861 -2.8092551 1.218393
-2.1049652 -2.0068033 -0.5431302
-2.8507297 -2.8073828 0.25834608
-2.173671 -2.0794206 -0.4645605
-2.8497233 -2.8046632 0.392267
-2.200746 -2.1072676 -0.3684345
-2.849603 -2.8028958 0.5266006
-2.7024314 -2.644213 -0.3811486
-2.857095 -2.8092937 0.6630362
-2.7762594 -2.7218204 -0.2656101
-2.8693442 -2.8207824 0.8024345
-2.8529983 -2.8024554 -0.14397456
-2.8620484 -2.81132 0.9389906
-2.869751 -2.8187587 -0.010722517
-2.8767142 -2.8253791 1.0840073
-2.8655941 -2.8126607 0.12420892
-2.8652108 -2.8114219 1.2225351
-2.127808 -2.0171902 -0.5493428
-2.868713 -2.8070028 0.25855577
-2.1755834 -2.0669653 -0.46275866
-2.8690565 -2.8057303 0.3929984
-2.220177 -2.1132903 -0.37186798
-2.8757262 -2.8112 0.52869284
-2.6940675 -2.6168725 -0.37708458
-2.8695972 -2.803032 0.6635207
-2.732738 -2.6565151 -0.25610587
-2.8913429 -2.8245401 0.80525035
-2.8736768 -2.8049264 -0.14536902
-2.8718402 -2.802147 0.9389887
-2.876834 -2.8066468 -0.010512899
-2.894566 -2.8246715 1.086704
-2.8918345 -2.8209512 0.12379014
-2.8908916 -2.8191183 1.2287484
-2.1892016 -2.0681834 -0.5705632
-2.889482 -2.8094292 0.25883523
-2.1921546 -2.070104 -0.46590683
-2.8829541 -2.8008783 0.39331368
-2.2356339 -2.1149166 -0.3741588
-2.8992133 -2.816449 0.53043497
-2.882099 -2.7967067 0.6640088
-2.7188091 -2.6232693 -0.25196108
-2.910695 -2.8252988 0.80743784
-2.7478704 -2.6524456 -0.12811485
-2.8978074 -2.8100376 0.9435679
-2.8907382 -2.801764 -0.010827219
-2.9017353 -2.8125448 1.0858067
-2.894794 -2.8044057 0.12396457
-2.9140105 -2.8238552 1.2339249
-2.1897526 -2.054359 -0.567978
-2.910299 -2.8117461 0.25911394
-2.2074382 -2.0717297 -0.4686084
-2.8954928 -2.794498 0.39352283
-2.2362657 -2.1007912 -0.37225047
-2.9173152 -2.8157578 0.53148204
-2.3636503 -2.233342 -0.29699036
-2.906969 -2.8032098 0.6666914
-2.7170703 -2.6030247 -0.25001082
-2.9233532 -2.818728 0.8080652
-2.742086 -2.6277142 -0.12619668
-2.9158356 -2.8091588 0.9458585
-2.7834547 -2.6695194 -0.001930109
-2.9183898 -2.8101568 1.0880562
-2.9157484 -2.8065565 0.12368479
-2.9293354 -2.8199446 1.2359955
-2.1957579 -2.0459626 -0.56745815
-2.92588 -2.8079367 0.2592567
-2.2215807 -2.0717025 -0.47085732
-2.92206 -2.8022711 0.3947785
-2.250564 -2.1007109 -0.37416115
-2.9328935 -2.8118992 0.5321778
-2.3265147 -2.178665 -0.28666407
-2.9279804 -2.805096 0.668642
-2.7222488 -2.5898356 -0.24928007
-2.937531 -2.81337 0.80900234
-2.7376776 -2.6043594 -0.12445153
-2.9394739 -2.8137128 0.9496762
-2.7639384 -2.6301415 0.00026915228
-2.9378848 -2.8103771 1.091206
-2.9327075 -2.8041584 0.123509675
-2.9447694 -2.8158596 1.2380649
-2.2044034 -2.0403364 -0.5679778
-2.9414356 -2.8040829 0.25939566
-2.243829 -2.080051 -0.4758061
-2.9375494 -2.7984626 0.39519656
-2.2689104 -2.104858 -0.37721178
-2.9483647 -2.8080747 0.5328744
-2.3273375 -2.1641662 -0.2851017
-2.948884 -2.8070173 0.6705896
-2.7299657 -2.57965 -0.24903792
-2.9583724 -2.8152385 0.8115072
-2.7370937 -2.5855563 -0.12323326
-2.9506586 -2.805661 0.95005727
-2.7619905 -2.609826 0.0011067466
-2.9557822 -2.8093626 1.0939052
-2.7797194 -2.6266603 0.12759376
-2.95989 -2.8120089 1.2401335
-2.2099934 -2.032241 -0.56745774
-2.9565403 -2.800598 0.25953528
-2.2454684 -2.0676157 -0.47400603
-2.9651554 -2.8078744 0.39655715
-2.2842743 -2.1063766 -0.3795023
-2.9662437 -2.807399 0.53392315
-2.3374474 -2.1598706 -0.28572646
-2.9611962 -2.8006136 0.6710788
-2.742887 -2.5754168 -0.24976645
-2.9775872 -2.8158658 0.81369525
-2.7431026 -2.5741758 -0.122883774
-2.9643056 -2.8006256 0.9512015
-2.7569273 -2.5869076 0.0021523193
-2.9830117 -2.8182354 1.0997529
-2.804001 -2.6337419 0.12720776
-2.9802377 -2.813789 1.2442744
-2.2330973 -2.0420995 -0.5736702
-2.9772425 -2.8027635 0.25981432
-2.2538679 -2.0621514 -0.47445846
-2.9719265 -2.795695 0.39634535
-2.294204 -2.1021786 -0.38026658
-2.986975 -2.8094435 0.53531545
-2.3365383 -2.144199 -0.2838505
-2.9763317 -2.7969372 0.67205304
-2.7433739 -2.558297 -0.24830596
-2.9941516 -2.8134952 0.8152588
-2.7533326 -2.5669684 -0.123057656
-2.9904191 -2.8080485 0.95578194
-2.7630284 -2.5753593 0.0023632387
-2.9845252 -2.800404 1.0970532
-2.8018734 -2.6134474 0.12748975
-3.0007703 -2.8153236 1.2484168
-2.2361515 -2.0309873 -0.5721199
-2.999641 -2.8060029 0.26012686
-2.2801986 -2.0745378 -0.48075786
-2.9872813 -2.7918193 0.39676416
-2.2960212 -2.0893893 -0.37873983
-3.0051622 -2.8083372 0.5363605
-2.3856168 -2.1790586 -0.29323462
-3.0028098 -2.8043156 0.67497504
-2.74811 -2.545291 -0.24757524
-3.0039623 -2.8038495 0.8152589
-2.76788 -2.5638392 -0.12375592
-3.0195203 -2.8179755 0.9611239
-2.7748127 -2.5693665 0.0021518543
-3.0079846 -2.804656 1.1015502
-2.7969308 -2.5902503 0.12783541
-3.0200932 -2.8152728 1.25204
-2.1888332 -1.9691124 -0.5514147
-3.0164514 -2.8034508 0.2602994
-2.2942853 -2.0743167 -0.48300704
-3.0110686 -2.79639 0.39781135
-2.3046818 -2.083588 -0.3791228
-3.0177495 -2.8014934 0.5367089
-2.3737235 -2.151923 -0.28885472
-3.0237658 -2.8059201 0.67692506
-2.7611723 -2.5407403 -0.24830586
-3.0179036 -2.7983859 0.81619745
-2.775406 -2.5535812 -0.12358131
-3.0404074 -2.8193917 0.96417624
-2.7893958 -2.5661623 0.0017315681
-3.020501 -2.7977374 1.1024519
-2.7974885 -2.5728009 0.12804683
-3.0339859 -2.809656 1.2535925
-2.184781 -1.9513466 -0.5472727
-3.0332904 -2.8008037 0.26047528
-2.3001392 -2.0657425 -0.48255536
-3.0377557 -2.803643 0.39906818
-2.323046 -2.0874672 -0.38217446
-3.035968 -2.8002212 0.537757
-2.3616734 -2.1248913 -0.28447717
-3.043375 -2.8059971 0.67863154
-2.7798567 -2.5417364 -0.25001153
-3.0416327 -2.8026216 0.8193268
-2.781489 -2.5418868 -0.12323343
-3.053016 -2.8123596 0.96493965
-2.8138876 -2.5727592 0.0005832737
-3.049564 -2.8072748 1.1087503
-2.8064592 -2.5638433 0.12804766
-3.047885 -2.8039649 1.2551447
-2.180623 -1.9336393 -0.54312974
-3.048715 -2.7966747 0.26061425
-2.2783186 -2.0296752 -0.47310695
-3.0560176 -2.802307 0.39969608
-2.3400643 -2.0898657 -0.38484386
-3.0542002 -2.798868 0.5388009
-2.3914979 -2.1397417 -0.2894809
-3.0545557 -2.797591 0.6788779
-2.7957542 -2.5398436 -0.25123024
-3.0612078 -2.8025632 0.8215176
-2.7974145 -2.5400112 -0.12410513
-3.0655978 -2.805286 0.9657031
-2.8044128 -2.5454714 0.0019430901
-3.0717957 -2.8097956 1.1128002
-2.907709 -2.646363 0.12577702
-3.076863 -2.8131795 1.2623925
-2.1722481 -1.9119052 -0.5374367
-3.0755365 -2.803704 0.2610339
-2.278461 -2.0156894 -0.47085893
-3.0728943 -2.799462 0.40021816
-2.3487463 -2.0838902 -0.3852276
-3.07814 -2.8030071 0.5405436
-3.0756166 -2.798886 0.6808261
-3.0850472 -2.8065505 0.8246453
-2.8133643 -2.538049 -0.1249773
-3.0865676 -2.8064132 0.96875393
-3.0722876 -2.7915442 -0.017107196
-3.0802033 -2.7985125 1.112347
-2.8314211 -2.55286 0.12787011
-3.0976877 -2.8140848 1.2665347
-2.183044 -1.909202 -0.53899175
-3.0952818 -2.803599 0.26127774
-2.278511 -2.0017478 -0.46861014
-3.092595 -2.799373 0.40095064
-2.3517683 -2.0724187 -0.38408265
-3.1020808 -2.807077 0.54228616
-2.421859 -2.1399055 -0.29292464
-3.0952199 -2.7987635 0.68253195
-2.4317944 -2.148418 -0.1856674
-3.101788 -2.8036017 0.8262094
-3.0371416 -2.739553 -0.15129888
-3.1158772 -2.8157914 0.97409636
-3.1033077 -2.802707 -0.018679567
-3.1009643 -2.799612 1.1159486
-3.0661297 -2.7647753 0.12235756
-3.1156251 -2.8123467 1.2696394
-2.170165 -1.8836895 -0.53174204
-3.1191354 -2.8078067 0.26162893
-2.3048575 -2.0138245 -0.4749069
-3.106405 -2.7938137 0.40126416
-2.3616257 -2.0679471 -0.3848473
-3.1116233 -2.7973058 0.54228777
-2.4263 -2.129701 -0.29229674
-3.1189637 -2.8028562 0.68497026
-2.4220192 -2.1243274 -0.18274194
-3.1127353 -2.795208 0.8265223
-3.115033 -2.796659 -0.15966508
-3.1338973 -2.814182 0.97638834
-3.1300256 -2.8096325 -0.01993421
-3.1244626 -2.8034198 1.1204476
-3.1157026 -2.7941277 0.12137815
-3.130731 -2.8079112 1.2717099
-2.1821136 -1.8824784 -0.5338152
-3.1301255 -2.7993584 0.26166284
-2.3187282 -2.013524 -0.47715858
-3.128872 -2.7964733 0.40220746
-2.3757648 -2.0674703 -0.3867544
-3.1269522 -2.7929478 0.5429836
-2.8313713 -2.5064948 -0.37990177
-3.141472 -2.805305 0.68716383
-2.4436352 -2.1305459 -0.18517946
-3.1437247 -2.8058035 0.831216
-3.130468 -2.7921777 -0.16036282
-3.1380253 -2.7986286 0.9748602
-3.142687 -2.8022952 -0.020144984
-3.1510777 -2.8095427 1.125844
-3.1225934 -2.7812517 0.12144922
-3.1461334 -2.8030996 1.2737808
-2.2013748 -1.8875539 -0.53847146
-3.1458967 -2.7945268 0.26180077
-2.332949 -2.0128114 -0.47940657
-3.1460683 -2.7930207 0.40273282
-2.3944817 -2.0706801 -0.38980705
-3.1541831 -2.7991405 0.545076
-3.044162 -2.6927583 -0.42464122
-3.1500635 -2.7935162 0.6869174
-3.169438 -2.8104177 0.8346567
-3.1548283 -2.7955897 -0.16210467
-3.1607857 -2.8004496 0.9782934
-3.1599107 -2.7987857 -0.02066529
-3.1723788 -2.809875 1.1294428
-3.157091 -2.7944107 0.120854445
-3.1729 -2.808695 1.2799907
-2.2192938 -1.8911877 -0.54261565
-3.168873 -2.7965531 0.26211646
-2.3429258 -2.0080245 -0.48030668
-3.1718762 -2.797827 0.4038808
-2.4174457 -2.0779157 -0.39400554
-3.1813805 -2.8052924 0.54716855
-2.4586744 -2.116011 -0.29448965
-3.1685169 -2.791447 0.6883807
-3.184725 -2.8060923 -0.30826807
-3.1907318 -2.811004 0.8371578
-3.1732652 -2.7935913 -0.16315114
-3.1762474 -2.7956257 0.9798222
-3.1739998 -2.7927017 -0.020981196
-3.1849673 -2.802327 1.130342
-3.1841738 -2.8007827 0.12043838
-3.1980247 -2.8131402 1.2856858
-2.2341342 -1.8924028 -0.5457198
-3.18854 -2.7961822 0.26235995
-2.34975 -2.000845 -0.48030734
-3.1886382 -2.794684 0.4044065
-2.4302108 -2.0758805 -0.39553043
-3.2053869 -2.8089468 0.5489092
-2.4744754 -2.1165824 -0.2963669
-3.1866598 -2.789634 0.68984336
-3.2000318 -2.8014967 -0.30923995
-3.2031589 -2.8036444 0.83778405
-3.1972404 -2.7972655 -0.16489315
-3.2071557 -2.8058264 0.9855451
-3.200915 -2.7991445 -0.02223889
-3.2058287 -2.8029766 1.1339413
-3.196603 -2.793478 0.120366715
-3.2146115 -2.8096714 1.2882717
-2.2461872 -1.8908957 -0.54779094
-3.211151 -2.7984517 0.26267532
-2.373592 -2.0096562 -0.48570463
-3.215616 -2.8010187 0.40566197
-2.424418 -2.0562735 -0.39209557
-3.217879 -2.801511 0.54926
-3.2029085 -2.7866328 -0.45311052
-3.213564 -2.7958221 0.6927697
-3.213968 -2.795393 -0.30997446
-3.2214103 -2.801557 0.83966076
-3.2126527 -2.7925265 -0.16559161
-3.2225215 -2.8009646 0.9870706
-3.2178257 -2.7957497 -0.022760384
-3.2240062 -2.8007224 1.136642
-3.212065 -2.7887166 0.1202286
-3.235581 -2.8099356 1.2924143
-2.2654793 -1.8957436 -0.5524482
-3.2238286 -2.7907796 0.26274174
-2.390564 -2.0114973 -0.48885626
-3.2224615 -2.7878737 0.40545014
-2.425845 -2.0432646 -0.3905706
-3.2363846 -2.799242 0.5503065
-3.219842 -2.782999 -0.45467824
-3.2392774 -2.800306 0.69545084
-3.238228 -2.7985213 -0.31241083
-3.2456248 -2.804589 0.8427902
-3.2311301 -2.790271 -0.16663925
-3.238031 -2.7958755 0.9885981
-3.2436452 -2.8003004 -0.023913672
-3.242327 -2.7982433 1.1393408
-3.242277 -2.797387 0.11973695
-3.2482045 -2.8020792 1.2934495
-2.2692502 -1.886027 -0.5514133
-3.2423508 -2.7884958 0.2629526
-2.4047272 -2.0105834 -0.4911045
-3.2497723 -2.793708 0.40670913
-2.4329908 -2.035585 -0.39057148
-3.254949 -2.7968347 0.5513521
-3.2397385 -2.781909 -0.45686504
-3.249099 -2.7897403 0.69544774
-3.265534 -2.8041325 -0.3153336
-3.2641797 -2.8020306 0.84466696
-3.2614205 -2.7986457 -0.16907802
-3.25076 -2.787937 0.9893614
-3.2535207 -2.7896621 -0.02391356
-3.2636487 -2.7981844 1.1429421
-3.2609699 -2.794878 0.119529985
-3.2694643 -2.8018837 1.2975886
-2.2660441 -1.869578 -0.54779166
-3.2655509 -2.7899153 0.26326466
-2.4219437 -2.0120547 -0.49425533
-3.2597547 -2.7829063 0.40670794
-2.4301517 -2.0184057 -0.387901
-3.2796037 -2.799506 0.55309236
-3.2613065 -2.7818446 -0.45936933
-3.2649117 -2.7843156 0.69642264
-3.2813964 -2.79865 -0.31630865
-3.291644 -2.807218 0.8484214
-3.280221 -2.7958925 -0.17012584
-3.2853003 -2.7997096 0.99584955
-3.2737837 -2.7883053 -0.024646647
-3.283696 -2.796558 1.1460892
-3.2974753 -2.8083742 0.118899114
