ply
format ascii 1.0
element vertex 1480
property float x
property float y
property float z
end_header
3.3764353 -11.273343 2.0663629
1.8969826 -6.661674 -0.42063877
2.7162921 -9.22331 2.0738733
1.9026918 -6.686188 -0.17655347
2.2363353 -7.7323737 2.0656538
1.9003092 -6.6854463 0.06884911
1.8703731 -6.5951076 2.0465817
0.5748998 -2.5533504 -0.5265745
0.6993122 -2.9473479 -0.52260727
2.1402674 -7.4846115 0.6029333
0.85990435 -3.456084 -0.51346105
4.9360237 -16.301422 1.6875994
1.8834178 -6.686236 -0.91963124
1.5153085 -5.531345 -0.52107465
1.8749088 -6.672886 -0.42099065
2.692349 -9.259774 2.079216
1.8751144 -6.6802907 -0.17582291
2.2010908 -7.7149534 2.059355
1.8763435 -6.690965 0.06888689
1.8467441 -6.6005874 2.046065
0.5671444 -2.559856 -0.5276073
2.1419692 -7.5738087 0.32993564
0.68610334 -2.9413025 -0.52035594
2.109956 -7.4795218 0.60219985
0.8543024 -3.4804978 -0.5176592
2.1157708 -7.5056934 0.87954545
1.8606654 -6.69548 -0.9199454
2.09311 -7.441001 1.1487696
1.4817654 -5.491961 -0.5152236
1.853991 -6.687822 -0.42168728
1.8517927 -6.687622 -0.17582364
1.8523934 -6.69639 0.06892066
1.8254312 -6.613351 2.0476165
0.55991864 -2.5681849 -0.5291602
4.9580545 -16.741676 0.49728462
0.6792898 -2.955677 -0.52305627
0.84214115 -3.4842887 -0.5176592
4.952353 -16.757751 1.7261213
1.8431126 -6.721637 -0.9230731
1.4578847 -5.482759 -0.5132744
3.2849932 -11.397393 2.0807533
1.8300366 -6.6931815 -0.4215126
1.8313711 -6.704419 -0.17634612
1.8278137 -6.699826 0.06899245
1.8034571 -6.6242085 2.0486526
0.54585487 -2.5543287 -0.5245004
4.9452677 -16.908848 0.5000053
0.66495454 -2.945822 -0.5199071
0.8276285 -3.480541 -0.5161348
4.9343495 -16.909218 1.7383201
1.8362458 -6.7836843 -0.9321468
4.2775564 -14.777607 2.088582
1.4420618 -5.500081 -0.51473653
3.2125454 -11.303922 2.0632343
1.8122387 -6.7194867 -0.4232569
2.5925813 -9.282544 2.0776916
2.1107333 -7.7103453 2.052156
1.812821 -6.7357903 0.06846592
1.7766004 -6.6203094 2.0455463
0.53670716 -2.5571165 -0.52450365
4.8829603 -16.92155 0.49990037
0.6623023 -2.9751475 -0.5262062
2.2538168 -8.241886 0.64259815
0.81346047 -3.4786935 -0.51499045
4.8668675 -16.904736 1.736229
1.0563232 -4.287201 -0.5178928
4.2051325 -14.729059 2.080295
1.4246562 -5.5136604 -0.51571226
3.1726246 -11.318092 2.0635495
1.8059832 -6.78592 -0.4286602
2.559897 -9.294497 2.07807
1.824483 -6.8547583 -0.18377732
2.0876033 -7.7336326 2.055755
1.8151643 -6.831182 0.06686219
1.7528856 -6.627476 2.0455458
0.52755636 -2.5598688 -0.5245032
0.6455668 -2.9577935 -0.5212544
0.8095298 -3.51062 -0.5207144
1.0355291 -4.2728133 -0.5147626
4.1531878 -14.744628 2.0802944
1.4029831 -5.511864 -0.51473576
3.1368163 -11.343247 2.065738
1.8071789 -6.877069 -0.4363298
2.5217957 -9.285399 2.0742571
1.813633 -6.9059477 -0.18618512
2.0606673 -7.741679 2.0557556
1.8113295 -6.9053698 0.06563899
1.7304487 -6.636189 2.046064
0.52102405 -2.5698705 -0.5265715
0.6387978 -2.9719977 -0.523955
0.7953525 -3.5066319 -0.5191883
1.0243193 -4.288493 -0.5166414
4.0962296 -14.73664 2.0773714
1.8107624 -6.968667 -0.7004736
3.0981684 -11.3546715 2.065737
1.8067654 -6.9623694 -0.4434784
2.4918191 -9.300394 2.075399
1.808096 -6.97422 -0.18953577
2.0299056 -7.7345004 2.0521584
1.8102924 -6.989068 0.06424057
1.7062104 -6.63729 2.044513
0.5144393 -2.5798547 -0.52864414
0.6292269 -2.9768326 -0.52440464
0.78177214 -3.5044694 -0.51804054
1.0141317 -4.307936 -0.5191443
4.060474 -14.800862 2.0837061
1.813049 -7.0651975 -0.7119314
3.0578775 -11.360261 2.0647995
1.8074787 -7.053481 -0.451148
2.4765594 -9.366192 2.0868473
1.8110268 -7.0732226 -0.1945599
2.0030432 -7.7402964 2.0517056
1.8026248 -7.0516987 0.063231125
1.6846966 -6.647575 2.045547
0.5024456 -2.5712607 -0.5255376
2.149246 -8.298269 0.34207612
0.6158561 -2.9685287 -0.52170444
2.1390238 -8.271561 0.6423901
0.7687506 -3.5041456 -0.51727897
5.57765 -20.261517 2.0355058
0.9961892 -4.3007803 -0.5172686
4.0001993 -14.781063 2.0793214
1.8179625 -7.173278 -0.7248482
3.0235229 -11.386608 2.0673044
1.8053828 -7.1370225 -0.45812088
2.4343903 -9.339519 2.0795982
1.8132883 -7.172331 -0.19958499
1.9745294 -7.740386 2.0499086
1.808805 -7.1643596 0.061310984
1.6567447 -6.635505 2.0403712
0.49158245 -2.5663297 -0.52346677
2.9042199 -11.06487 0.3921155
0.6062628 -2.9732955 -0.52215445
2.1276793 -8.339186 0.6456345
0.7508837 -3.4867854 -0.5130798
5.5659003 -20.484474 2.0539808
0.98038036 -4.3011765 -0.5166403
3.9451995 -14.780215 2.0773723
1.8208917 -7.2777042 -0.73728144
2.9849393 -11.39964 2.0676146
1.8073733 -7.2379527 -0.46666294
2.4022331 -9.348657 2.0795972
1.8189392 -7.2869954 -0.20544691
1.9515251 -7.761096 2.0530572
1.8155271 -7.2830114 0.059285626
1.6332779 -6.640152 2.0398529
0.48418027 -2.57444 -0.52501786
2.8936064 -11.175905 0.39392975
0.59429866 -2.9705944 -0.5208054
5.560595 -20.718468 1.318812
0.74663305 -3.5185757 -0.5188067
5.559755 -20.738718 2.0752447
0.96854216 -4.3168187 -0.5185164
3.886075 -14.767967 2.0739605
1.3115041 -5.5506334 -0.51619965
2.9440424 -11.40702 2.0669916
1.8061609 -7.3314147 -0.47450712
2.3621886 -9.331342 2.074254
1.9358988 -7.809997 2.0629537
1.6183513 -6.6764255 2.0481365
0.47570783 -2.5788045 -0.525537
2.8796382 -11.2773485 0.39557132
0.5849657 -2.9772348 -0.5217049
5.536122 -20.91184 1.3282312
0.72965044 -3.504956 -0.5153701
5.550935 -20.989298 2.0961628
0.9471739 -4.2981486 -0.51476425
3.8429663 -14.812882 2.077858
1.2910736 -5.552177 -0.51570964
2.9068482 -11.427572 2.0685546
1.8429039 -7.5651875 -0.49507406
2.3343024 -9.357392 2.0776887
1.9014169 -7.791223 2.0566564
2.7868574 -11.022888 -0.008172682
1.5914731 -6.6698174 2.0445132
0.46974874 -2.5924618 -0.52864146
2.8649526 -11.378842 0.3972114
0.57763827 -2.9913704 -0.5244062
5.529172 -21.174692 1.3414192
0.7225603 -3.5272546 -0.51918626
0.9352662 -4.313696 -0.5166412
3.7932854 -14.834707 2.078834
2.8406653 -11.33527 -1.250862
2.8632941 -11.42514 2.0663633
1.8211671 -7.589711 -0.49664468
2.3026311 -9.370108 2.078455
1.8716446 -7.789241 2.0544078
1.5681652 -6.676165 2.0445132
0.4571853 -2.5818553 -0.5250197
0.5671957 -2.9941962 -0.5244039
5.5257287 -21.457008 1.3556539
0.7051575 -3.511622 -0.5153706
0.9217427 -4.3234863 -0.5175811
3.7363713 -14.829505 2.0763977
1.2538149 -5.5684643 -0.51644266
2.8229067 -11.433979 2.0660505
1.7874647 -7.569903 -0.49420375
2.2658706 -9.363737 2.0754018
3.0517805 -12.310654 -0.47646984
1.8484805 -7.811614 2.0580072
2.6845646 -10.949063 -0.006462236
1.5443668 -6.680557 2.0439951
0.44965136 -2.589867 -0.52657217
1.5686822 -6.8115277 0.31437123
0.55623543 -2.9951038 -0.52395433
5.5233617 -21.751165 1.3705169
0.69690746 -3.530075 -0.51842284
0.90209335 -4.3103194 -0.5147622
3.6916516 -14.870163 2.0798106
1.2389218 -5.590913 -0.51863563
2.7839615 -11.44842 2.0666754
1.76305 -7.584634 -0.49490106
2.2386546 -9.393307 2.0795975
1.8187032 -7.809429 2.0557542
2.6483395 -10.966936 -0.0066020805
1.5170921 -6.671793 2.0398545
0.44109958 -2.5941179 -0.5270885
1.5337819 -6.775224 0.31360358
0.54233176 -2.9846573 -0.5208077
5.516074 -22.033945 1.3847505
0.6791321 -3.5124185 -0.51422393
0.88903964 -4.321915 -0.51601666
3.6327481 -14.856886 2.076397
1.2154047 -5.5806623 -0.51668715
2.7445009 -11.460802 2.066992
1.7350686 -7.5857835 -0.49437857
2.1940196 -9.356285 2.0704403
1.7617774 -7.6976905 -0.22544017
1.8007495 -7.852393 2.0643044
1.4972004 -6.6909633 2.0434756
0.433001 -2.6002128 -0.5281254
1.5180905 -6.8123517 0.31416288
0.53093225 -2.983588 -0.5199066
0.6732188 -3.5403154 -0.5191871
0.8798389 -4.348782 -0.5197686
3.5778682 -14.858775 2.074935
1.196894 -5.589547 -0.5171723
2.6985652 -11.448186 2.0632372
1.7085675 -7.5926256 -0.49437854
2.1632748 -9.372329 2.0719652
1.5322982 -6.9132657 -0.18262614
1.7626846 -7.8179297 2.054405
1.727611 -7.6855397 0.052896503
1.4747764 -6.7007256 2.0445123
0.4253514 -2.6081536 -0.529679
1.5026833 -6.8513837 0.31475753
0.5248321 -3.0032506 -0.52395684
5.5634623 -22.86731 1.4276625
0.6545883 -3.518732 -0.514226
0.8617492 -4.341165 -0.5178918
3.5367239 -14.914334 2.0802948
1.177382 -5.5945177 -0.5171748
2.6600618 -11.464104 2.0641758
1.6791356 -7.5877795 -0.4933305
2.131525 -9.384453 2.0727289
1.5081654 -6.9193993 -0.18262571
1.7377807 -7.834308 2.0566547
1.622122 -7.380156 0.05851516
1.4523338 -6.7104044 2.0455487
0.4115471 -2.591713 -0.52450335
1.5190389 -7.0184293 0.3176509
0.5124488 -2.9983325 -0.52215695
5.5193987 -23.030817 1.4354076
0.6408679 -3.5161116 -0.5130809
0.8427577 -4.329644 -0.5153904
3.4855702 -14.931277 2.0807855
1.1568767 -5.5955725 -0.51668704
2.615707 -11.4569025 2.0613594
1.4755481 -6.8829317 -0.42918128
2.1082103 -9.430774 2.0803604
1.4806186 -6.9118853 -0.18189277
1.7122846 -7.8487244 2.0584543
1.4279552 -6.712515 2.044511
0.40435117 -2.601464 -0.52657384
0.50291497 -3.0047152 -0.523055
0.6342238 -3.542031 -0.5176596
0.83047235 -4.344896 -0.51726747
3.4287238 -14.924896 2.0783458
1.1411302 -5.6158257 -0.51863456
2.578545 -11.478298 2.0632348
1.429223 -6.7979183 -0.42098883
2.071559 -9.423645 2.0773096
1.4507902 -6.8945584 -0.18063837
1.6830403 -7.847907 2.0566564
1.4836203 -7.03749 0.06490701
1.3994838 -6.6976423 2.0388184
0.3929814 -2.5943034 -0.52398413
1.4572563 -6.9780545 0.3167098
0.4924176 -3.0072825 -0.52305406
0.62369937 -3.5526857 -0.5191878
0.812505 -4.3370805 -0.51539034
3.3644354 -14.887445 2.0720088
1.1233772 -5.628324 -0.51961285
2.5416858 -11.501504 2.0654278
1.3970563 -6.7688365 -0.41785046
2.0271173 -9.383941 2.0677671
1.4267043 -6.900412 -0.1806347
1.6583573 -7.8659334 2.0593557
1.4604343 -7.0492907 0.06480041
1.3796965 -6.7183437 2.0429604
0.38572422 -2.604003 -0.5260552
1.4338322 -6.9878125 0.31678137
0.47829562 -2.994648 -0.5194549
0.6099302 -3.54994 -0.51803964
0.80561084 -4.3753047 -0.52102023
3.343762 -15.031231 2.0885825
1.0991327 -5.6137276 -0.51717347
2.498801 -11.4995985 2.0635486
1.3665141 -6.7454233 -0.4152374
1.999814 -9.414705 2.0723476
1.3952332 -6.875085 -0.17896225
1.6268549 -7.8554354 2.0553064
2.4021666 -11.129504 -0.008312792
1.3575866 -6.729584 2.044512
0.3766272 -2.6061635 -0.52605635
0.47095886 -3.010408 -0.52260464
0.59258807 -3.5318549 -0.5138427
1.5206751 -7.490513 -1.0272619
3.2912405 -15.043647 2.0885859
1.0840507 -5.637687 -0.5196107
2.4554656 -11.495622 2.0613613
1.3443106 -6.7568026 -0.41575754
1.9700471 -9.435843 2.0750186
1.375307 -6.898248 -0.17990182
1.6016235 -7.871387 2.057556
2.3769197 -11.197076 -0.009359686
1.3323166 -6.727589 2.0424428
0.36752957 -2.60829 -0.5260538
2.7004378 -12.673955 0.41842672
0.46176952 -3.0185564 -0.5239557
0.58468395 -3.5538564 -0.5176585
0.7697042 -4.3593836 -0.5172668
3.2387395 -15.055866 2.0885847
1.0625865 -5.6345267 -0.51863724
2.4153452 -11.504946 2.061361
1.3251988 -6.7816963 -0.41750142
1.9388778 -9.4511385 2.0765452
1.3543618 -6.9174576 -0.18063755
1.5728422 -7.8720574 2.0562053
1.3101348 -6.7386727 2.0439973
0.3579873 -2.608503 -0.5255385
2.6494799 -12.654894 0.4179039
0.45079097 -3.01908 -0.5235038
0.5740118 -3.5643632 -0.5191845
1.464835 -7.487195 -1.0247587
3.1861303 -15.067916 2.0885859
1.0393864 -5.623546 -0.51668495
2.369026 -11.487172 2.0569792
1.3067945 -6.8104286 -0.41959304
1.9028178 -9.44528 2.073877
1.3478405 -7.0008917 -0.18482164
1.5483476 -7.891637 2.0593576
4.270289 -19.933542 -0.16542989
1.2857358 -6.740268 2.0429616
0.35057566 -2.6181047 -0.5276073
2.6031713 -12.655124 0.41773006
0.4402743 -3.021458 -0.5235036
0.5564719 -3.544172 -0.51460713
1.4367065 -7.483413 -1.0231935
3.1053429 -14.951823 2.072498
1.0225168 -5.6395545 -0.5181481
2.3349087 -11.521174 2.0610456
1.2871741 -6.8332205 -0.421161
1.8685231 -9.44494 2.0723472
1.3245786 -7.0102124 -0.1850326
1.5194848 -7.8901267 2.0575564
1.2630006 -6.7473445 2.0434794
0.34040743 -2.6144328 -0.5260533
2.55359 -12.635434 0.4172042
0.4287231 -3.0180395 -0.5221538
0.54862684 -3.566027 -0.51842296
1.4103687 -7.4852123 -1.0225646
3.0492885 -14.939855 2.0695724
1.0126863 -5.6864653 -0.5235115
2.2948127 -11.52601 2.0604198
1.2613378 -6.826697 -0.42011788
1.8363478 -9.452056 2.0723507
1.3045515 -7.033048 -0.18597408
1.4942749 -7.9036794 2.0593553
1.7158926 -8.921254 0.0319473
1.238363 -6.744866 2.041406
0.33315188 -2.6239347 -0.52812505
2.5092309 -12.639013 0.41710243
0.417581 -3.0164895 -0.5212562
0.5351393 -3.562948 -0.5172776
1.385403 -7.4947076 -1.0231924
3.0249813 -15.077227 2.0854177
0.9921632 -5.6868773 -0.5230223
2.146785 -11.0346365 1.9793893
1.237607 -6.8318644 -0.42011765
1.8088124 -9.484168 2.0773115
1.4662223 -7.90778 2.0589068
1.6812614 -8.912405 0.03222482
1.2158955 -6.755673 2.042961
0.32173738 -2.6165147 -0.52553654
2.4714823 -12.683966 0.4177296
0.40840656 -3.0264385 -0.52305496
0.52074367 -3.5580094 -0.51575255
1.360211 -7.508197 -1.0244454
0.96437347 -5.656291 -0.5186348
2.1080859 -11.046967 1.9800167
1.2214142 -6.876081 -0.4236009
1.7715876 -9.476069 2.0742567
1.6439106 -8.880429 -0.28437668
1.4370939 -7.910016 2.058005
1.6365126 -8.858568 0.03330989
1.1917003 -6.760833 2.0429614
0.31237575 -2.6184978 -0.52553654
2.4310846 -12.717046 0.4181474
0.3964003 -3.0230024 -0.5217049
0.5084683 -3.56261 -0.5161321
1.331491 -7.504161 -1.022878
0.9524149 -5.6993823 -0.5235125
2.104837 -11.22731 2.0078611
1.2043823 -6.91631 -0.4267417
1.7344669 -9.465815 2.0708215
1.3654506 -7.7001295 -0.2208348
1.4159198 -7.94831 2.0656564
1.661844 -9.1372595 0.028456736
1.1678852 -6.765823 2.0429604
0.3032287 -2.6204023 -0.5255351
0.38544723 -3.0232892 -0.5212536
0.49958336 -3.5824993 -0.5195658
1.3044821 -7.5057244 -1.0222551
2.8299048 -14.941857 2.0642138
0.9293132 -5.687946 -0.521561
1.1850188 -6.944726 -0.4288303
1.6990299 -9.461104 2.068532
1.3357502 -7.691983 -0.22010139
1.3869778 -7.9483075 2.064306
1.625918 -9.124246 0.028805593
1.1454045 -6.7763686 2.0445144
0.29484975 -2.6260595 -0.52657175
0.37644082 -3.0330844 -0.52305543
0.48863462 -3.5927467 -0.52109486
1.2778927 -7.509123 -1.0219394
2.7848213 -14.9874935 2.068598
0.91102785 -5.699766 -0.5225342
2.091905 -11.568725 2.060422
1.3152246 -7.717272 -0.4973389
1.6667861 -9.471651 2.0692978
1.3085079 -7.695467 -0.21999638
1.3584734 -7.9501057 2.0634038
4.292854 -22.584587 -0.21078439
1.1175807 -6.7603164 2.0388186
0.28718483 -2.6354806 -0.52864313
0.3647057 -3.0294757 -0.5217039
0.47073337 -3.568301 -0.5157527
1.2547331 -7.5298696 -1.0244416
2.734386 -15.007693 2.0698187
0.8965134 -5.7310057 -0.5259495
2.0499537 -11.569037 2.0591717
1.2925153 -7.744148 -0.49925992
1.6325544 -9.472467 2.0681503
1.28124 -7.6988587 -0.21989188
1.3250446 -7.9269524 2.056657
3.8019974 -20.50878 -0.17356716
1.0988115 -6.7896495 2.04555
0.2761332 -2.627816 -0.5260527
0.3552725 -3.0372918 -0.5230541
0.4564528 -3.5611053 -0.51384145
1.2354053 -7.569901 -1.0300765
2.682775 -15.019844 2.0700607
0.87061834 -5.703716 -0.5220476
2.006948 -11.56136 2.0566692
1.2646269 -7.7435164 -0.49873513
1.5998746 -9.478859 2.068151
1.2497668 -7.678556 -0.21853043
1.2999779 -7.943762 2.059357
1.0721874 -6.7771273 2.0408902
0.26609054 -2.6238577 -0.5245025
1.1974819 -7.4824834 0.32435325
0.34639543 -3.0469482 -0.52485543
0.44653732 -3.5750167 -0.51613224
0.6013472 -4.390864 -0.5166383
2.6334682 -15.039451 2.0712802
1.9402453 -11.416863 -1.2357442
1.9719999 -11.592221 2.0604208
1.2419826 -7.7681584 -0.5004763
1.5639154 -9.4657755 2.0643375
1.2685497 -7.9259768 2.0539598
1.2056783 -7.6010294 0.05631922
1.0491018 -6.7815475 2.040889
0.25894937 -2.6350482 -0.52709025
1.178654 -7.522699 0.324983
0.33420265 -3.0393453 -0.5226054
0.4357685 -3.585051 -0.51766056
0.5855803 -4.3898273 -0.5160146
2.5713143 -14.992619 2.0642142
0.8389075 -5.750181 -0.52692354
1.9314537 -11.595858 2.0597954
1.2152624 -7.773199 -0.5004765
1.5349339 -9.491217 2.0681508
1.2419231 -7.934955 2.054859
1.1823579 -7.6216927 0.056039505
1.024597 -6.7802553 2.0393393
0.24974446 -2.6367655 -0.52708995
1.1883148 -7.7222795 0.32843545
0.3225249 -3.0355742 -0.521254
0.42075586 -3.5738652 -0.5149865
0.56667286 -4.3732467 -0.51288503
2.522876 -15.023814 2.0668952
0.82168806 -5.7695255 -0.528874
1.894502 -11.622793 2.062927
1.1877499 -7.776265 -0.50030243
1.500004 -9.487694 2.066243
1.1788996 -7.740679 -0.22104314
1.2103436 -7.9189878 2.049909
1.1701018 -7.705291 0.05464275
1.001601 -6.7884235 2.040374
0.2408856 -2.6403503 -0.527607
1.1788213 -7.8236237 0.33014524
0.3115829 -3.0355923 -0.5208035
3.3053665 -19.603088 1.2352991
0.41002622 -3.5858 -0.51689726
0.56052095 -4.426571 -0.52102154
2.4700963 -15.031399 2.066651
0.8001443 -5.7653713 -0.5278968
1.8500965 -11.608772 2.0594845
1.1563799 -7.7576585 -0.49821347
1.4703641 -9.513021 2.0700622
1.147298 -7.720017 -0.21968009
1.1840848 -7.931663 2.0517085
0.9768913 -6.786999 2.0388184
-0.13886292 -0.55540895 0.04025102
0.3050608 -3.0605168 -0.5262048
3.2511566 -19.695976 1.2395911
0.3957896 -3.5783734 -0.5149865
0.545745 -4.433221 -0.52164596
2.4196486 -15.052493 2.068115
0.7786255 -5.76114 -0.52692354
1.8102232 -11.6198845 2.06011
1.0902402 -7.5407505 -0.47851205
1.4381467 -9.52473 2.071206
1.1137607 -7.687431 -0.21769328
1.1604173 -7.9596124 2.0571084
0.95251083 -6.787394 2.0377865
-0.14013925 -0.5595564 0.039217714
3.227613 -19.933994 0.54446685
-0.13578449 -0.58559656 0.054182924
3.2076957 -19.853647 1.2473364
0.39034265 -3.6211834 -0.5230007
0.5262291 -4.4125695 -0.51789016
2.3657675 -15.053846 2.0671394
0.7612209 -5.780299 -0.52887225
1.7659771 -11.605544 2.0566676
1.0788212 -7.631727 -0.48618326
1.4015754 -9.511169 2.06739
1.099807 -7.766894 -0.22166918
1.1290065 -7.943314 2.0521588
0.9288255 -6.791504 2.0377834
-0.14274289 -0.55608386 0.04025418
3.1747499 -20.04454 0.54621214
-0.14273095 -0.5571312 0.060930394
3.168448 -20.042772 1.2567542
-0.13955946 -0.57679296 0.07768076
0.5108162 -4.4152093 -0.5178922
2.3101928 -15.045231 2.0649457
0.73705685 -5.7602634 -0.52594715
1.726419 -11.618315 2.0576065
1.0790383 -7.7954063 -0.5003015
1.3667144 -9.507157 2.0654812
1.9140278 -12.762147 -0.4869351
1.1019034 -7.9518824 2.0530605
2.2756422 -14.933705 -0.07300922
0.90573955 -6.799347 2.03882
-0.1418231 -0.5735611 0.03559398
3.129127 -20.202288 0.54879487
-0.14403555 -0.56130296 0.060030475
3.1168609 -20.164862 1.262615
-0.14286034 -0.56938416 0.0792059
-0.14341249 -0.56708163 0.100358546
2.2606137 -15.071653 2.06714
0.7195463 -5.7792964 -0.52789706
1.6849098 -11.619248 2.0566707
1.0544294 -7.815678 -0.5016987
1.338337 -9.541752 2.071207
1.866558 -12.751841 -0.48599386
1.0694003 -7.9276643 2.0463095
2.8260303 -18.600533 -0.13774098
0.88169837 -6.8013864 2.0383039
-0.1438268 -0.5738914 0.03559505
2.7959416 -18.60344 0.5203185
-0.14442976 -0.5712425 0.05778376
2.7897296 -18.599401 1.1788878
-0.14642486 -0.5600222 0.08111533
2.7855768 -18.608032 1.8406441
-0.14286156 -0.58300555 0.09785708
2.204142 -15.056773 2.0642128
0.7044386 -5.8139567 -0.5317974
1.6446291 -11.627841 2.0569832
1.0290375 -7.8319435 -0.5027454
1.3024942 -9.531692 2.0681522
1.8213774 -12.755168 -0.48578233
1.040461 -7.9244847 2.0445096
2.7610416 -18.611118 -0.13774009
0.8610065 -6.8243275 2.0434804
-0.14643867 -0.5703991 0.03662757
2.7291398 -18.602058 0.52011234
-0.14519687 -0.57926136 0.05598164
2.7235734 -18.601955 1.1784673
-0.1489959 -0.55645853 0.08187706
2.7143943 -18.579107 1.837156
-0.14613484 -0.57552826 0.099107526
2.1528475 -15.073038 2.0651882
-0.14771761 -0.56662184 0.120962314
1.6034381 -11.630431 2.056357
0.9989025 -7.8186026 -0.5011746
1.2722996 -9.5563965 2.071969
1.777796 -12.76819 -0.48609784
1.0149356 -7.9423685 2.0476599
2.690813 -18.587883 -0.13714637
0.83419055 -6.8090334 2.0383024
-0.15051582 -0.5573527 0.040252496
2.6595266 -18.58267 0.519587
-0.14841983 -0.5718781 0.057782132
2.6552033 -18.590475 1.1773183
-0.14973351 -0.5645239 0.080353804
2.6485662 -18.583399 1.8366332
-0.149054 -0.56998754 0.10004682
2.0922809 -15.0302925 2.058854
-0.14848183 -0.5747787 0.11998851
1.5615965 -11.6289835 2.0551052
0.97159106 -7.8228726 -0.5011743
1.242206 -9.582954 2.0761666
1.6028726 -11.930315 -0.4412936
0.98985827 -7.964029 2.0517113
1.5991995 -11.929597 -0.01934279
0.8092265 -6.8050976 2.0362327
-0.15100533 -0.56720155 0.03766522
2.5945134 -18.590664 0.5195522
-0.15216666 -0.5606249 0.060481038
2.5901358 -18.596443 1.1771083
-0.15198217 -0.5628834 0.08073542
2.583198 -18.585371 1.8359381
-0.15012985 -0.57614815 0.099105805
2.0394077 -15.030363 2.057878
-0.14986034 -0.5790062 0.11950021
1.5211865 -11.631167 2.0544796
0.94723785 -7.8427176 -0.5025671
1.2030873 -9.545235 2.0677705
1.565848 -11.960206 -0.4425508
0.9613684 -7.9585137 2.0494606
1.5567036 -11.921906 -0.019098548
0.78765863 -6.818148 2.0388207
-0.15288769 -0.5674853 0.037663247
2.5345814 -18.611826 0.51976115
-0.15517421 -0.553195 0.062283017
2.5251875 -18.583992 1.1759593
-0.15442686 -0.55928 0.08149799
-0.15406954 -0.56275654 0.10129624
1.9918487 -15.053544 2.059829
-0.15555863 -0.55376536 0.122670785
1.4831623 -11.640847 2.0551069
0.9203386 -7.840692 -0.5020471
1.1699755 -9.540251 2.0658638
0.9341027 -7.956663 2.0481093
1.5488575 -12.14344 -0.022903925
0.76278275 -6.8062215 2.0346801
-0.15309781 -0.5792327 0.03455811
-0.15645967 -0.55732346 0.061383095
2.6797094 -20.08541 1.254976
-0.15686934 -0.5556699 0.08226055
2.6048944 -19.6114 1.9250059
-0.15399082 -0.57672024 0.09910495
1.9407966 -15.061016 2.0598266
-0.15687536 -0.55797017 0.12218288
1.442866 -11.642739 2.054481
-0.14935414 -0.61131734 0.13736802
1.1386033 -9.554743 2.0677714
0.90715194 -7.964523 2.0490096
2.4337063 -18.606367 -0.13679768
0.74596196 -6.8574657 2.0476196
-0.15734506 -0.5642299 0.03870154
2.6105134 -20.071863 0.54516697
-0.15708767 -0.56725687 0.059130758
2.602748 -20.060125 1.2530926
-0.15968348 -0.55012333 0.08340662
2.5976567 -20.067303 1.9643991
-0.15522733 -0.5828833 0.09816653
1.8835411 -15.045128 2.056905
-0.15859623 -0.5602208 0.121937044
1.4017245 -11.652594 2.0551043
-0.15542386 -0.58400714 0.13980773
1.1027532 -9.547943 2.065483
-0.16538225 -0.51425415 0.16418816
0.87728167 -7.95892 2.0467594
2.3634794 -18.590065 -0.13634063
0.7157904 -6.8207645 2.0367508
-0.15830402 -0.5721673 0.036630638
2.5409887 -20.097757 0.54544455
-0.15804635 -0.5752622 0.057330944
2.5358586 -20.10376 1.2548736
-0.16137534 -0.55234176 0.083023556
2.5276089 -20.08713 1.9652702
-0.15972157 -0.5655596 0.10098408
1.830653 -15.056498 2.0573902
-0.15761565 -0.5821304 0.119256996
1.3593562 -11.650499 2.053854
-0.16208632 -0.55073637 0.14277199
1.0713801 -9.570129 2.068916
-0.16233315 -0.55012554 0.16230378
0.8518275 -7.982112 2.0512595
2.2982092 -18.601099 -0.1363747
0.69176865 -6.824078 2.03675
-0.16133541 -0.56478196 0.038699623
2.4683723 -20.089504 0.54513246
-0.16031568 -0.57360464 0.05778101
2.4640274 -20.101446 1.2542443
-0.16356601 -0.5506582 0.08340547
0.52329534 -5.673352 0.6921756
-0.16195942 -0.56386966 0.10129695
1.7764721 -15.051824 2.0559301
-0.16333042 -0.5548597 0.12266851
1.3196998 -11.663838 2.0551069
-0.16242988 -0.5628456 0.14172326
1.0353523 -9.5551815 2.0650995
-0.16741584 -0.526627 0.1635623
0.823427 -7.9820046 2.0503592
1.5460659 -13.434052 -0.045212165
0.6679274 -6.8272824 2.0367506
-0.16230063 -0.57270604 0.03662863
2.395411 -20.07701 0.5447499
-0.16408935 -0.5603447 0.060930677
2.3912947 -20.090946 1.2531989
-0.16446997 -0.55869997 0.081877045
-0.16188405 -0.57980007 0.098795675
1.7229245 -15.050883 2.054953
-0.16449872 -0.5610205 0.12193661
1.2790004 -11.6692 2.0551078
-0.16362476 -0.5690316 0.14120106
1.0025165 -9.5634575 2.0658646
-0.16771474 -0.5387523 0.16293359
0.7920747 -7.9585996 2.0440624
1.5125147 -13.54332 -0.047027826
0.64558864 -6.841895 2.0398567
-0.16381158 -0.5767976 0.035593342
2.326537 -20.096004 0.54492515
-0.16407566 -0.5760627 0.05733336
2.3195903 -20.088116 1.2525727
-0.16765961 -0.5492136 0.08378891
0.48115987 -5.65876 0.69043076
-0.16266629 -0.5898589 0.09722926
1.6698436 -15.053701 2.0544655
-0.16745524 -0.5533945 0.122914314
1.2399666 -11.688144 2.0572963
-0.16711006 -0.5574258 0.14224894
0.9691051 -9.56773 2.065864
-0.16984603 -0.5370113 0.16303729
0.7650003 -7.967948 2.0454133
2.0970082 -18.577036 -0.13550292
0.62168574 -6.8449383 2.039856
-0.16749093 -0.5636315 0.039217085
0.48229918 -5.8026347 0.29343793
-0.16488817 -0.58598477 0.055083394
0.48513237 -5.839381 0.4997416
-0.16909464 -0.55335075 0.08302522
0.4589731 -5.6414585 0.688688
-0.164483 -0.59207696 0.09691772
1.6202291 -15.083905 2.0573933
-0.16744785 -0.56939715 0.12096211
1.1989421 -11.691265 2.056982
-0.16832723 -0.5636005 0.14172272
0.9352425 -9.567984 2.0651026
-0.16880785 -0.5610335 0.16178015
0.73956287 -7.99074 2.0499122
2.0333982 -18.59499 -0.13567628
0.59569657 -6.8306346 2.035199
-0.17015402 -0.5581184 0.0407688
-0.1674006 -0.5823652 0.05598272
-0.17102759 -0.5535859 0.083022684
0.44045013 -5.6537476 0.6895609
-0.16702077 -0.58840567 0.09754201
0.47051442 -5.9190397 0.9233237
-0.16661076 -0.5932912 0.11803593
-0.16935259 -0.5717524 0.14102538
0.90112007 -9.566173 2.0639584
-0.1717105 -0.55333686 0.16220106
0.71187687 -7.99604 2.0503595
0.45080265 -5.8044395 0.089350246
0.5720607 -6.8354216 2.0357175
-0.17075393 -0.56986207 0.037664488
0.43528694 -5.751902 0.29246005
-0.17010741 -0.5767986 0.05733173
0.4360791 -5.772859 0.49597073
-0.17227006 -0.55966353 0.08187793
0.4341851 -5.7708497 0.699669
-0.1692898 -0.5866839 0.09785453
-0.16752104 -0.6033921 0.11681964
0.42543113 -5.723914 1.104017
-0.17086972 -0.57594216 0.14067705
0.86744845 -9.564192 2.062813
-0.17384662 -0.5515758 0.16230464
0.43381795 -5.8325973 0.08889643
0.5505691 -6.855434 2.0403743
-0.17313088 -0.5662469 0.038698383
0.41592163 -5.7561474 0.29249433
-0.17338872 -0.5654068 0.060033724
0.41147333 -5.7314596 0.49366984
-0.17351395 -0.5657349 0.08073315
0.41430578 -5.771124 0.69949514
-0.17106645 -0.5888755 0.09754321
0.4249552 -5.880365 0.91796124
-0.16824432 -0.61546254 0.11535587
0.40417108 -5.7104354 1.1015122
-0.16927607 -0.60784477 0.13789065
0.83465445 -9.565948 2.062431
-0.17194812 -0.5855317 0.16052324
0.41395056 -5.8348494 0.08889721
0.5278618 -6.863838 2.041927
-0.17421104 -0.57414347 0.036630232
0.39588127 -5.754363 0.29242668
-0.17382608 -0.5791817 0.056884144
0.3901687 -5.717757 0.49283105
-0.17715871 -0.5503377 0.083788805
0.3915327 -5.7455907 0.6970561
-0.1722242 -0.5969543 0.09629145
0.39855257 -5.8253736 0.91089296
-0.1718626 -0.6018828 0.117063634
0.3809228 -5.6792207 1.096193
-0.17050466 -0.61599886 0.13719177
0.8046957 -9.596904 2.0677738
-0.17052056 -0.61752415 0.1588498
0.3910099 -5.8112183 0.089351214
0.50206214 -6.8472342 2.0367522
-0.17724116 -0.5647561 0.039218877
0.37471986 -5.746599 0.29225385
-0.1762617 -0.5755247 0.05778393
0.36787295 -5.698068 0.49168208
-0.17949511 -0.54664034 0.08455188
0.36810225 -5.7160525 0.6942666
-0.17368592 -0.6030716 0.09535117
0.37403002 -5.788077 0.90602016
-0.17313167 -0.61000484 0.11608966
0.36170363 -5.6872396 1.0971339
-0.17286474 -0.6142475 0.13736616
0.7707591 -9.596582 2.06701
-0.17288585 -0.61576784 0.15895547
0.37174815 -5.823322 0.089176446
0.47613424 -6.8305616 2.0315764
-0.1796085 -0.5611196 0.040252775
0.3513696 -5.716874 0.29169217
-0.17727722 -0.5854278 0.055532344
0.3477248 -5.698165 0.491578
-0.18060964 -0.55465204 0.08302556
0.3389211 -5.6289496 0.68642336
-0.17761184 -0.585606 0.09816875
0.35267854 -5.7803154 0.90480065
-0.17527829 -0.6102272 0.11608927
0.34207267 -5.6932445 1.0977596
-0.17583682 -0.60654265 0.13806498
0.735701 -9.58836 2.064719
-0.17425638 -0.6239403 0.15853785
0.35093138 -5.823452 0.089212365
0.45250964 -6.8388133 2.0331292
-0.1812345 -0.56516784 0.03921646
0.3273393 -5.6831284 0.29106584
-0.1812976 -0.5662474 0.06003336
0.3267309 -5.694261 0.49126318
-0.18259536 -0.55485207 0.08302251
-0.18028995 -0.57991904 0.099105574
0.32906199 -5.752758 0.90114284
-0.17785142 -0.606495 0.11657575
0.32226562 -5.701181 1.0986956
-0.17781372 -0.6087425 0.13788949
0.7007942 -9.585922 2.063578
-0.17726703 -0.6162118 0.15895401
0.33104885 -5.8354726 0.08903639
0.4291449 -6.8527775 2.036233
-0.18307157 -0.5672888 0.038698435
0.30610174 -5.6751556 0.29089174
-0.18368599 -0.56256413 0.06093342
0.30459186 -5.6763487 0.4902168
-0.1840049 -0.5609066 0.08188022
0.29543227 -5.5972104 0.68328613
-0.1815915 -0.5879834 0.097856484
0.3067186 -5.732982 0.8984634
-0.18073474 -0.5987963 0.11754995
0.30280867 -5.709011 1.0996379
-0.17975949 -0.6109316 0.1377142
0.6670925 -9.58719 2.063195
-0.17979215 -0.6124411 0.15916607
0.52027905 -8.0556135 2.0593596
-0.17970884 -0.61519533 0.18061921
0.40520227 -6.8531237 2.0357156
-0.18464771 -0.5713179 0.037666254
0.28548563 -5.663035 0.29064727
-0.18488598 -0.57050604 0.059131544
0.2847083 -5.672195 0.48990196
-0.18735263 -0.5454455 0.08493029
0.27782494 -5.6148643 0.6846803
-0.18413454 -0.5822687 0.098794244
0.28592545 -5.720965 0.8967569
-0.18259329 -0.60096294 0.11730658
0.28390113 -5.716719 1.1005763
-0.18220118 -0.60715616 0.1380642
0.6362176 -9.609766 2.0670106
-0.18169731 -0.61462295 0.15905973
0.4928414 -8.058147 2.0593605
-0.18270499 -0.60543114 0.18079205
0.3811661 -6.847576 2.0336475
-0.18761973 -0.55994916 0.040771246
0.26675177 -5.6707573 0.29075158
-0.18648246 -0.5745639 0.05823282
0.26576522 -5.677918 0.49011233
-0.18955474 -0.5417014 0.08569424
0.25696942 -5.5967383 0.6829372
-0.18594207 -0.58441466 0.098482534
0.26559335 -5.7128243 0.89554006
-0.18429056 -0.605101 0.11681936
0.26738995 -5.7519116 1.1058952
-0.18531065 -0.595432 0.13911076
0.60318464 -9.608769 2.0662475
-0.18344085 -0.61878866 0.15885073
0.26148868 -5.731441 0.09095544
0.35803968 -6.851566 2.0341632
-0.18969154 -0.5581907 0.041287333
0.24488212 -5.642554 0.29022926
-0.18843888 -0.5747345 0.05823371
0.24642742 -5.679599 0.4901114
-0.19073375 -0.5496863 0.08416733
0.23807634 -5.600375 0.68311036
-0.18893348 -0.572777 0.100358084
0.24596867 -5.712526 0.8952937
-0.18718657 -0.5953884 0.1180384
-0.18733841 -0.59560597 0.1391111
0.5691433 -9.595927 2.0631933
-0.18554807 -0.618969 0.1588505
-0.18632735 -0.61176807 0.1806867
0.33213338 -6.822752 2.0258832
-0.19064108 -0.56990206 0.038184054
0.22595309 -5.6481533 0.2902982
-0.19136123 -0.5632455 0.060930487
0.2259429 -5.6692824 0.48948494
-0.19294721 -0.54593056 0.08493115
0.21871908 -5.601984 0.68311286
-0.19075945 -0.5749109 0.100046195
0.22513567 -5.7023015 0.8938332
-0.18830307 -0.60743195 0.11657535
-0.18910937 -0.5997505 0.13876069
0.5356628 -9.602622 2.0639596
-0.18869492 -0.6072037 0.15947698
-0.18834248 -0.6139392 0.18065198
0.2882654 -6.580173 1.9601429
-0.19303335 -0.56621826 0.039217602
0.2061735 -5.6617765 0.2905099
-0.19373071 -0.55952525 0.061830565
0.20468275 -5.6649704 0.4891705
-0.19479685 -0.54804754 0.08455035
0.19971631 -5.623484 0.6848527
-0.19286795 -0.5750781 0.100045905
0.20360741 -5.6960435 0.8928578
-0.19098955 -0.60167074 0.11730586
0.6682172 -11.742325 2.056674
-0.19100311 -0.60389674 0.13841315
0.50029045 -9.603435 2.0635777
-0.19107443 -0.60538703 0.15958233
-0.19074643 -0.61212164 0.18068847
0.26192775 -6.553162 1.9523804
-0.19481999 -0.5702301 0.038183752
0.18596072 -5.6693406 0.29061383
-0.19518526 -0.5674539 0.060030513
0.18506527 -5.6784844 0.4897989
-0.19735475 -0.5403666 0.08607643
0.18011284 -5.6329656 0.68555146
-0.19434188 -0.58311397 0.09879541
0.18288071 -5.691639 0.89212745
-0.19297801 -0.6038117 0.117061414
0.6265918 -11.743481 2.0563598
-0.19283585 -0.6080308 0.13806221
0.4666448 -9.60596 2.0635772
-0.1937697 -0.59757775 0.16000062
-0.19373652 -0.60031307 0.18089637
0.24103187 -6.5779653 1.9585918
-0.19781382 -0.55495346 0.042324387
0.16757405 -5.676698 0.29071575
-0.19609904 -0.58119786 0.056881003
0.16791998 -5.7037616 0.49105456
-0.19886987 -0.5444134 0.08531563
0.16113876 -5.630346 0.685203
-0.19655512 -0.5793132 0.09942174
0.16371427 -5.689042 0.8916403
-0.19484219 -0.6059361 0.11681786
0.58637565 -11.728549 2.053545
-0.19610769 -0.59028774 0.13963258
0.4338085 -9.594535 2.060907
-0.19477884 -0.61166614 0.15927017
0.34994015 -8.4293 2.142139
-0.19531229 -0.6064397 0.1807907
0.23579042 -6.8184915 2.0227747
-0.1996536 -0.5550818 0.042322204
0.15048116 -5.703948 0.2911698
-0.19816616 -0.5793882 0.0573321
0.15010518 -5.723017 0.49199474
-0.20082276 -0.5425807 0.085695036
0.14280792 -5.6396008 0.68589926
-0.19903147 -0.5715635 0.10066973
0.14523344 -5.7002635 0.89285713
-0.19715153 -0.6021154 0.11730605
0.54870963 -11.760831 2.0582383
-0.19744428 -0.60036457 0.1387601
0.4020221 -9.608511 2.063195
-0.19672745 -0.61380094 0.15916334
0.31476173 -8.334029 2.1196456
-0.19764794 -0.60258967 0.18086277
0.21473601 -6.8547697 2.032095
-0.20134304 -0.55906606 0.041289005
0.13557605 -5.7830944 0.29253393
-0.2006905 -0.5717431 0.059133224
0.13139366 -5.7442675 0.49304166
-0.20246688 -0.5466239 0.084933236
0.12399715 -5.654813 0.6871195
-0.20065044 -0.57760847 0.0997318
0.12544636 -5.7035456 0.89310235
-0.19887732 -0.60819566 0.11657725
0.50637776 -11.743791 2.0551102
-0.19979243 -0.5965239 0.13911061
0.36709857 -9.589132 2.0589979
-0.19962369 -0.6019794 0.15979154
0.24475929 -7.6843615 1.9689312
-0.1993781 -0.60871243 0.18075588
0.19067 -6.854379 2.0315778
-0.20270433 -0.56882995 0.0386986
0.98422605 -20.025711 0.5415088
-0.20339595 -0.56019706 0.061831463
0.11800957 -5.8551664 0.49879786
-0.20413704 -0.55066186 0.084167406
0.10631087 -5.6898484 0.69008267
-0.2026658 -0.5777336 0.099732086
0.103998154 -5.6790175 0.889933
-0.20135614 -0.60238194 0.117305346
0.4674102 -11.779835 2.0604281
-0.20116182 -0.6085846 0.13806531
0.33480996 -9.610782 2.062815
-0.20219792 -0.5941329 0.16021064
0.21564436 -7.6470904 1.9599339
-0.20126589 -0.6128339 0.18068679
0.16675627 -6.8558307 2.0315754
-0.20435749 -0.574734 0.03714575
0.9141584 -20.027859 0.54147655
-0.20468286 -0.57198596 0.05913406
-0.20639552 -0.5448951 0.085313156
0.087340795 -5.706928 0.6914797
-0.20445973 -0.5817961 0.099106535
0.08494651 -5.6940494 0.89163905
-0.20312405 -0.6084504 0.11657618
0.42537284 -11.766448 2.0579252
-0.20306365 -0.61268634 0.13771375
0.3002484 -9.595079 2.0593808
-0.20360394 -0.60621756 0.15958478
0.19185996 -7.7011595 1.9720821
-0.20429467 -0.596984 0.18096842
0.14483978 -6.89385 2.0414097
-0.20751216 -0.55362666 0.04284088
0.84485954 -20.043741 0.54168373
-0.2066829 -0.5720974 0.059130598
0.8381046 -20.029617 1.2425288
-0.20862003 -0.53911906 0.086459145
0.83282006 -20.04278 1.9473231
-0.20660788 -0.5799357 0.09941951
-0.2056849 -0.60063815 0.117548645
0.3823731 -11.739119 2.0532312
-0.2062716 -0.5929076 0.139457
0.26793277 -9.626327 2.0651033
-0.20595485 -0.6023442 0.15979399
-0.2060961 -0.6030887 0.18086094
0.11830893 -6.854647 2.0305412
-0.2092988 -0.55758935 0.04180686
0.7719873 -20.025518 0.5413015
-0.20833953 -0.5799891 0.05733269
0.76639426 -20.03334 1.2425313
-0.21015812 -0.5470622 0.08493317
0.7602662 -20.030565 1.9459298
-0.20858562 -0.58201563 0.099106275
-0.2077372 -0.6027309 0.11730736
0.34043956 -11.743235 2.0535467
-0.20819867 -0.5969955 0.139109
0.2327967 -9.614347 2.0624328
-0.20704108 -0.624397 0.15863983
-0.20815858 -0.60519445 0.18082562
0.09320733 -6.8442993 2.027434
-0.21111195 -0.5615459 0.04077262
0.7005204 -20.028994 0.5413012
-0.21076931 -0.5723026 0.059130583
0.69491404 -20.030796 1.2422167
-0.21191666 -0.5510781 0.0841704
0.68936557 -20.03397 1.9459298
-0.21155228 -0.56238115 0.10223664
0.4549185 -15.0588875 2.0422878
-0.20976694 -0.604815 0.117062405
0.2993051 -11.747165 2.0538597
-0.2102 -0.5990847 0.13893676
0.19838153 -9.598281 2.0589983
-0.21039383 -0.5985617 0.16000281
-0.20981187 -0.6152811 0.18065268
0.07017091 -6.8608437 2.0315752
-0.21277167 -0.5674227 0.03921963
0.58433914 -18.92728 0.5220042
-0.21313907 -0.56265587 0.06138006
0.5783177 -18.912437 1.1833956
-0.2139618 -0.5472392 0.08493141
0.5733696 -18.922295 1.84832
-0.21253993 -0.58417547 0.09879346
0.40413678 -15.073058 2.0437486
-0.2126679 -0.58507264 0.11949862
0.25954747 -11.754848 2.0547988
-0.21232367 -0.5971835 0.13910864
0.16651805 -9.619326 2.0628166
-0.21209781 -0.60663265 0.15958232
-0.21199039 -0.61337376 0.18068677
0.04632607 -6.8502707 2.0284731
-0.21477944 -0.56557316 0.039735895
0.52030057 -18.941957 0.52221316
-0.21475132 -0.5705243 0.059582412
0.5142088 -18.931082 1.1842355
-0.21607243 -0.5414311 0.08607815
0.5100427 -18.968767 1.8521559
-0.21478522 -0.57833654 0.09973307
0.35240874 -15.083117 2.0447226
-0.21492423 -0.5792041 0.12023204
0.21848597 -11.748602 2.0535483
-0.21401386 -0.6072221 0.13823713
0.13340524 -9.630482 2.0647225
-0.21421465 -0.60671747 0.15958168
0.06760969 -7.9840117 2.0359685
-0.2148998 -0.5934768 0.18103568
0.022936296 -6.868598 2.033129
-0.21708651 -0.5579285 0.04180572
0.4541538 -18.990513 0.523017
-0.21679363 -0.5706018 0.059582327
0.44794226 -18.975567 1.1864322
-0.21786931 -0.54542845 0.08531503
0.47279775 -19.8275 1.9271089
-0.21643296 -0.5902588 0.09785736
0.2989695 -15.101002 2.0466752
-0.21615511 -0.60308766 0.11730528
0.17718677 -11.771873 2.0569892
-0.21646692 -0.5993374 0.1389355
0.09817075 -9.610165 2.0605276
-0.21638654 -0.60679674 0.15958443
0.039834727 -8.008425 2.041367
-0.21730046 -0.5855596 0.18117738
-0.001987055 -6.859833 2.0305436
-0.21933699 -0.5502746 0.043875948
0.39143425 -19.146751 0.52570426
-0.21869874 -0.57456756 0.058680937
0.41892016 -20.15764 1.2482901
-0.21967697 -0.5494192 0.0845518
-0.21877217 -0.5824322 0.09910614
0.2449765 -15.07899 2.0437503
-0.2183406 -0.6011747 0.11754912
0.119834505 -11.267815 1.9768947
-0.21844132 -0.60339004 0.13858703
0.06395591 -9.591657 2.0567088
-0.2183165 -0.6128556 0.15926981
0.011953848 -8.00934 2.0413668
-0.21865304 -0.6076125 0.18079178
-0.026127772 -6.849022 2.0274384
-0.2209821 -0.55805737 0.041806906
-0.22088325 -0.5668366 0.060480554
-0.22132011 -0.5573262 0.083024904
-0.22086887 -0.57854307 0.099733055
0.19362158 -15.080544 2.0437484
-0.21987966 -0.61909485 0.11535509
0.08039711 -11.231449 1.9709536
-0.22083241 -0.5915018 0.1396347
0.032336064 -9.629914 2.0639596
-0.22062579 -0.6049314 0.15968685
-0.015755385 -7.99456 2.037767
-0.22099814 -0.59767824 0.1809652
-0.049293257 -6.855496 2.0289886
-0.2226784 -0.56583506 0.03973746
-0.22281584 -0.5668898 0.060481224
-0.22322412 -0.5573783 0.08302578
-0.22274978 -0.5825461 0.09910665
0.14194103 -15.081934 2.043751
-0.22250016 -0.599307 0.117793284
0.050814636 -11.593858 2.0282078
-0.22276762 -0.59553915 0.13928264
-0.0013839679 -9.607235 2.059383
-0.22300294 -0.59300566 0.16031486
-0.042521726 -8.028397 2.0454137
-0.22296493 -0.60173005 0.18089525
-0.07280014 -6.863831 2.0310612
-0.22456668 -0.56974596 0.038698673
-0.22466469 -0.5727823 0.059132837
-0.22543097 -0.54564774 0.08531521
-0.22474083 -0.5845692 0.09879311
0.08892004 -15.06729 2.0418007
-0.22472116 -0.5934016 0.11852685
0.014455921 -11.788336 2.0588648
-0.22467816 -0.60355484 0.1385857
-0.034939222 -9.608001 2.0593808
-0.22503184 -0.5950496 0.16021092
-0.071129404 -8.001752 2.0391192
-0.22547948 -0.58178407 0.18124703
-0.09657589 -6.8740215 2.0336494
-0.22670309 -0.5620617 0.04076967
-0.22669609 -0.57087517 0.059583876
-0.2271807 -0.5535384 0.08378744
-0.22673182 -0.5865848 0.098479554
0.037462153 -15.108026 2.0466769
-0.22670263 -0.5974121 0.11803704
-0.02678012 -11.761486 2.0544872
-0.22715178 -0.5816825 0.14050294
-0.06765993 -9.632196 2.0639625
-0.22708231 -0.5950889 0.16021064
-0.09853254 -8.01007 2.0409179
-0.22734194 -0.5898198 0.18110748
-0.12051326 -6.8551483 2.0284736
-0.22864743 -0.5601635 0.04129007
-0.22842841 -0.58454794 0.056431685
-0.22912544 -0.54964393 0.084549025
-0.22884691 -0.57871747 0.09973372
-0.013932075 -15.112843 2.0471625
-0.2287078 -0.59943 0.117795855
-0.066748925 -11.768061 2.055425
-0.22930408 -0.5697613 0.14155231
-0.10068567 -9.617015 2.060908
-0.22896795 -0.60510635 0.15968855
-0.12613802 -7.9871144 2.0355172
-0.2297368 -0.56185776 0.18159696
-0.14391038 -6.8516436 2.027436
-0.23052914 -0.5621221 0.040771153
-0.23063755 -0.56703824 0.06048299
-0.23084937 -0.5634111 0.08187789
-0.2308184 -0.58071905 0.099420264
-0.06601716 -15.121466 2.0481367
-0.23084877 -0.5935018 0.118526146
-0.10733122 -11.788333 2.058556
-0.23113199 -0.58373225 0.14033072
-0.13391347 -9.640991 2.0654888
-0.23114292 -0.59914094 0.16000263
-0.15383765 -8.00889 2.0404685
-0.23143755 -0.5878761 0.18114206
-0.16786534 -6.861589 2.0300257
-0.2325074 -0.56600666 0.039735407
-0.23266712 -0.56705916 0.06048281
-0.23288211 -0.5614682 0.082260124
-0.23288171 -0.5827144 0.09910608
-0.120122425 -15.125952 2.0486271
-0.23304845 -0.583597 0.119746044
-0.14965208 -11.7729225 2.0560515
-0.23316334 -0.5917204 0.13963276
-0.16862646 -9.613815 2.0601451
-0.23332976 -0.593168 0.1603166
-0.18268365 -7.9838047 2.0346198
-0.093576655 -21.436245 -0.18286857
-0.19238067 -6.869521 2.032097
-0.23450138 -0.5718164 0.038183447
-0.23468696 -0.56707287 0.06048268
-0.23491031 -0.55362827 0.0837859
-0.23490565 -0.5906285 0.097854786
-0.23514234 -0.57368344 0.1209629
-0.19100203 -11.767232 2.0551136
-0.23523642 -0.59173197 0.13963221
-0.20209166 -9.653261 2.067779
-0.23544824 -0.5791984 0.16105027
-0.2104441 -7.9936905 2.0368674
-0.16817628 -21.396624 -0.18217316
-0.21620145 -6.867705 2.0315769
-0.23646942 -0.56023216 0.04128775
-0.23659384 -0.5826687 0.05688172
-0.23679057 -0.55756 0.08302573
-0.23692228 -0.58470756 0.09879586
-0.22493012 -15.154196 2.0520384
-0.23708744 -0.58559877 0.11950071
-0.23109189 -11.739666 2.0507348
-0.23725596 -0.5797818 0.14067869
-0.23497038 -9.633694 2.063963
-0.23717591 -2.6483614 0.052599914
-0.23766719 -8.024917 2.0440671
-0.24103947 -21.404734 -0.18230952
-0.23958331 -6.8503504 2.0269217
-0.2383787 -0.56216395 0.04077235
-0.251298 -7.9867687 0.3307798
-0.23858495 -0.5826682 0.05688176
-0.23870389 -0.55755883 0.08302255
-0.23895213 -0.59063184 0.09785439
-0.27698642 -15.054893 2.0398512
-0.23909771 -0.57964087 0.1202319
-0.27179894 -11.743567 2.05136
-0.23920958 -0.55985516 0.14242339
-0.26850912 -9.633643 2.0639622
-0.23928675 -0.5332616 0.16345522
-0.26566732 -8.009276 2.0404696
-0.31644773 -21.51857 -0.18429984
-0.26360902 -6.844505 2.025368
-0.24040087 -0.5640889 0.040252242
-0.27966854 -7.9446745 0.3300462
-0.24063826 -0.5768145 0.058230974
-0.2407108 -0.5595142 0.082643814
-0.24097031 -0.5748203 0.10036028
-0.33088064 -15.054654 2.0398543
-0.2543912 -2.6599646 -0.13521625
-0.31384286 -11.743369 2.0513585
-0.24117374 -0.55386835 0.14294502
-0.30299592 -9.633471 2.0639613
-0.2561044 -2.678255 0.05103084
-0.294312 -8.005227 2.0395694
-0.29518268 -7.9585743 0.052449726
-0.28822723 -6.859822 2.029508
-0.24246874 -0.56987035 0.038699623
-0.30807152 -7.950472 0.330154
-0.24264033 -0.5709534 0.059580557
-0.24280527 -0.5712782 0.08035215
-0.43826935 -21.25785 2.0512133
-0.24303892 -0.5787549 0.099732205
-0.38394475 -15.054231 2.039852
-0.35518262 -11.754882 2.053237
-0.24297269 -0.53990597 0.14416565
-0.33667195 -9.6331835 2.0639622
-0.32205388 -7.993289 2.0368676
-0.26645792 -2.7014294 0.14423817
-0.3119024 -6.849946 2.0269208
-0.2444327 -0.5717816 0.03818373
-0.33509588 -7.9461865 0.33008173
-0.24463265 -0.5748297 0.05868201
-0.5069914 -21.444876 1.3152784
-0.24460053 -0.5594783 0.082644485
-0.5105565 -21.249073 2.0505166
-0.27208677 -2.6625774 -0.23035477
-0.4352119 -15.053646 2.0398548
-0.39500192 -11.73861 2.0507336
-0.24489185 -0.5458608 0.14364094
-0.3694757 -9.632789 2.063962
-0.34965727 -8.020234 2.0431685
-0.33544806 -6.865106 2.0310612
-0.24634768 -0.5698231 0.038700335
-0.36230642 -7.953806 0.33022392
-0.24678163 -0.58649313 0.0559814
-0.24652001 -0.5594507 0.08264116
-0.5832135 -21.224106 2.048427
-0.2800274 -2.5873885 -0.21846332
-0.28117776 -2.6100256 -0.12912057
-0.43536255 -11.718245 2.0476055
-0.40300992 -9.632273 2.0639634
-0.37892073 -8.089938 2.059364
-0.28466216 -2.6751728 0.14469275
-0.35940984 -6.856994 2.0289927
-0.24831344 -0.5659247 0.039736412
-0.3886616 -7.8433456 0.3283046
-0.24895656 -0.59035283 0.055081405
-0.448071 -10.759171 0.7553309
-0.24859995 -0.5633405 0.081879325
-0.65883833 -21.204805 2.0468605
-0.2895257 -2.5990696 -0.2203388
-0.28697082 -2.435201 -0.107670635
-0.4771514 -11.709561 2.0463562
-0.27087876 -1.6194644 0.049683943
-0.437494 -9.631618 2.0639648
-0.2875664 -2.3941858 0.06589385
-0.406487 -8.023136 2.0440679
-0.29419672 -2.6729877 0.1447269
-0.38371047 -6.8449244 2.0258858
-0.2505566 -0.57553923 0.03714639
-0.41496062 -7.7687864 0.32701117
-0.25047716 -0.56498134 0.06093095
-0.484413 -10.676489 0.75104153
-0.25078088 -0.57114846 0.0803518
-0.7335666 -21.189236 2.0456376
-0.29833528 -2.583071 -0.21783586
-0.29544368 -2.4310427 -0.10718491
-0.518348 -11.712598 2.0469825
-0.29621163 -2.4059768 0.065265074
-0.43489394 -8.041981 2.048569
-0.30061948 -2.5568275 0.14675157
-0.4078228 -6.859827 2.0300286
-0.25256646 -0.5774227 0.036630053
-0.2525548 -0.570778 0.05958049
-0.51955247 -10.629665 0.7486341
-0.25277784 -0.5730625 0.079973
-0.8054506 -21.177467 2.0447698
-0.3064242 -2.5300488 -0.11937279
-0.55899143 -11.739218 2.0513592
-0.3097899 -2.599422 0.055113785
-0.30601203 -2.4386623 0.14881162
-0.43107292 -6.8553452 2.0289927
-0.25435972 -0.5715751 0.038183462
-0.2540364 -0.55514026 0.063182116
-0.55486494 -10.596699 0.7469591
-0.2543815 -0.5612324 0.08226287
-0.87750566 -21.163452 2.0437214
-0.31621253 -2.590493 -0.2190879
-0.3171133 -2.5952747 -0.1274158
-0.598693 -11.7183 2.0482345
-0.31760874 -2.586869 -0.035033856
-0.49153817 -8.089133 2.059813
-0.32080045 -2.6402798 0.14528613
-0.45745605 -6.9395943 2.0517678
-0.25603694 -0.5618586 0.040769883
-0.49956357 -7.9044495 0.32941937
-0.25688294 -0.5823463 0.056881983
-0.59187394 -10.595525 0.7469584
-0.25640708 -0.5631323 0.081879996
-0.95041037 -21.131218 2.041109
-0.32579288 -2.6059964 -0.22159193
-0.3265823 -2.6068842 -0.1288793
-0.32746488 -2.610468 -0.0371272
-0.32886228 -2.6287985 0.053541854
-0.3303015 -2.6479666 0.14514425
-0.47829428 -6.842251 2.0258863
-0.52332956 -7.799572 0.32760748
-0.2600612 -0.6134336 0.04968456
-0.6283179 -10.580254 0.74622744
-1.0233791 -21.108692 2.0393648
-0.33451617 -2.5958025 -0.22002612
-0.3357521 -2.6085415 -0.12912305
-0.68078935 -11.723389 2.049486
-0.33657295 -2.610138 -0.037125442
-0.33864495 -2.64443 0.0527038
-0.3397693 -2.6536214 0.14504151
-0.50275946 -6.8568125 2.030029
-0.2992619 -1.5442407 -0.22270954
-0.54856426 -7.7485743 0.3267341
-0.2640861 -0.66008306 0.038886536
-0.66559213 -10.586806 0.7466439
-0.34233826 -2.5834737 -0.3111954
-1.0972675 -21.1098 2.0397158
-0.34350014 -2.5934737 -0.21971358
-0.34518763 -2.6161158 -0.13009644
-0.72108185 -11.705979 2.0469825
-0.34609964 -2.6197293 -0.03799731
-0.34804553 -2.648052 0.052495483
-0.5263816 -6.848123 2.0279574
-0.30498567 -1.551736 -0.2247802
-0.57469434 -7.727465 0.32638642
-0.3513148 -2.5830936 -0.31119663
-0.35275513 -2.5990107 -0.22065435
-0.3539737 -2.6097784 -0.12936491
-0.76224005 -11.720025 2.0494852
-0.35577095 -2.6332712 -0.039219275
-0.35734943 -2.6516457 0.052287806
-0.58386695 -7.614961 0.058316287
-0.5498983 -6.8470902 2.0279574
-0.3102684 -1.5514976 -0.22478323
-0.3105216 -1.547521 -0.16627154
-0.36010915 -2.582691 -0.31119654
-0.36226246 -2.6124153 -0.2228445
-0.36324003 -2.617298 -0.13034101
-0.8021501 -11.718171 2.0494869
-0.36540872 -2.646784 -0.040441085
-0.3673866 -2.6564171 0.14497347
-0.5734015 -6.8498464 2.0289927
-0.3148668 -1.5377349 -0.22115709
-0.46384513 -4.4856052 0.2697833
-0.3160928 -1.5531018 -0.16762273
-0.3688324 -2.5802965 -0.31081355
-0.37161058 -2.6198637 -0.22409613
-0.37293398 -2.630728 -0.1320442
-0.84238654 -11.716162 2.0494852
-0.3762428 -2.649962 0.1450746
-0.59727454 -6.852503 2.0300286
-0.320236 -1.5374556 -0.2211571
-0.47681734 -4.434868 0.26891294
-0.32109496 -1.5450342 -0.1658229
-0.37933552 -2.607267 -0.31615826
-0.3822289 -2.6322215 -0.13228945
-0.8833049 -11.713978 2.0494857
-0.49569887 -4.670994 -0.21789622
-0.653614 -7.488149 -0.20166671
-0.3859438 -2.6574476 0.14493816
-0.62077445 -6.843489 2.0279567
-0.32593197 -1.5429432 -0.22271176
-0.3260372 -1.5369508 -0.16402265
-0.38899916 -2.6165562 -0.318066
-0.39001215 -2.6208358 -0.22440894
-0.9241654 -11.711654 2.049486
-0.51562005 -4.7317214 -0.22330126
-0.5478298 -5.253615 -0.084426045
-0.5480796 -5.2319865 0.09989989
-0.644073 -6.8324676 2.0253685
-0.33143649 -1.5445532 -0.22322902
-0.33080885 -1.526907 -0.16177382
-0.39885703 -2.6277685 -0.320354
-0.9650657 -11.709185 2.0494854
-0.5339983 -4.7605495 -0.22591501
-0.56380254 -5.214626 -0.08243739
-0.56647587 -5.2328663 0.09986529
-0.6687839 -6.844502 2.0289931
