ply
format ascii 1.0
element vertex 813
property float x
property float y
property float z
end_header
-1.823096027738827 1.745653774856266 -0.4832278615139267
-1.827675056409531 1.7640370651743311 -0.373015586236365
-1.8071040199111061 1.7624885218661603 -0.36980004202351685
-1.8012464590699542 1.7563662534574045 -0.4807692952840169
-1.7696515989955637 1.760310779620235 -0.4757130055729703
-1.7426569987144545 1.754346627842909 -0.4701503955670702
-1.7705177204686924 1.7629735538300302 -0.364471214381888
-1.7913317748116924 1.7643088980879307 -0.3676813386056571
-2.2228211287876807 1.7634341188832448 -0.4328791119257519
-2.185082647594011 1.7685290320649403 -0.4275601540360855
-2.139375138001428 1.767504282668914 -0.42041875553496477
-2.0060271825630265 1.764033825739808 -0.39971760364962483
-1.756125313356314 1.7661140227619547 -0.3627195436957199
-1.8883058990819006 1.7664116905982092 -0.38228672142814074
-1.7078383073044459 1.7688496020848876 -0.4660298020465813
-1.6749155268227252 1.7575054438453104 -0.45872904724671065
-1.6530367478950518 1.75415226518123 -0.45446538785004614
-1.6374635162833902 1.7553486151191051 -0.4519354591027119
-1.5912859311083167 1.7578777509261057 -0.44433237114692137
-1.5080481326629822 1.7563177481350718 -0.4299308548425109
-1.572829431181465 1.7561886318739683 -0.4409304797511364
-1.4928286961504196 1.7565539686873661 -0.42739614365889267
-1.4806606395612223 1.759174113334398 -0.4257271628431784
-1.6175132224453237 1.7654203843472587 -0.44990340540349166
-1.5462207222845668 1.7616441960441216 -0.437173122453466
-1.4545353754246813 1.7633580808669516 -0.4219633938900428
-1.72266210264047 1.7552906536363009 -0.35658596421449895
-1.7051942154030773 1.7558405878087282 -0.3541014018309581
-1.6392724474888922 1.7586944553247226 -0.34488964199815497
-1.606759167787481 1.759174267298228 -0.34027681861434433
-1.595988478116953 1.763486144893264 -0.33925090406282693
-1.7665322825000498 1.7621446498399869 -0.253612406248689
-1.5898936632522236 1.760755316809686 -0.23298041584750584
-1.5712248085718437 1.758997339894108 -0.23067757500601607
-1.6789553427431456 1.7645225229131705 -0.24359970727821315
-1.7021118150305037 1.7666383065531412 -0.35490021499723695
-1.9459193685573795 1.7675428770656871 -0.27546061763092083
-1.8303936003567842 1.7679267613412633 -0.26168888433654797
-1.6847908909667153 1.7668635360822678 -0.35241772148351547
-1.5820616985918978 1.7653945539003095 -0.3374930617050383
-1.66592118277215 1.765816022719485 -0.3495650811207563
-1.7938662076608651 1.7681484074504237 -0.2573888191448343
-2.0454284842605754 1.7664066119055488 -0.17012541006341703
-1.7521003568807165 1.765235745370186 -0.2522040062681023
-1.6506421162345952 1.7692601771201315 -0.24077944284825467
-1.6148066972648092 1.7673156965206045 -0.23646889409034344
-1.5601410984808473 1.7635360696155888 -0.2298595300799798
-1.5585927144136624 1.760296007887995 -0.33354417613336973
-1.4725465021864388 1.754609170238917 -0.32072997847215334
-1.539879457759663 1.7586318701660395 -0.33069250465053507
-1.4556447626297435 1.7535541372142474 -0.3182374788423642
-1.4967085842284282 1.7511983038893897 -0.22146272963542862
-1.444395919405135 1.75909315567294 -0.21639791721273033
-1.5429275615104499 1.7630100608251225 -0.22785446600340006
-1.5215189329005376 1.7690696426054469 -0.3293703185807703
-1.503132738557334 1.7668309324850764 -0.3265116138670083
-1.5337181678407912 1.7682503951514765 -0.22733088878141422
-1.4983364523940008 1.7649477774199112 -0.22301751692245622
-1.4720976327135142 1.7689977233144756 -0.22048574475173918
-1.8298801027036864 1.7695410381059435 -0.15075630556200695
-2.165356789272886 1.7704711840553247 -0.4247216894191564
-2.213300929706094 1.771467160278874 -0.43222228440871097
-2.123375094207979 1.7707582289329928 -0.41830624596001126
-2.079287061994176 1.770401978203381 -0.4115286392513015
-2.099424641561923 1.7714862443884902 -0.29446102249872286
-2.0798080060406754 1.7727717233631937 -0.2921690163235477
-2.0552299099236313 1.7707275233640987 -0.28899065634887494
-2.105459508382589 1.7732882881784733 -0.4158268665265574
-2.216082512066564 1.7752497151994937 -0.30916463781320147
-2.063076700173145 1.7737645595259848 -0.4094134387037866
-2.202876596501635 1.7815932539851305 -0.3080587221375976
-2.1679570553790763 1.7740752588912334 -0.30311350855821817
-2.1274309595255474 1.7753613139266244 -0.2982309799730976
-2.1586101605995913 1.781548481051162 -0.30259130358687986
-2.0389910689941204 1.7739269758233516 -0.2872906983502666
-2.035344432092325 1.7695206276437765 -0.4047485731277276
-1.9931665805174692 1.7692392746452925 -0.3983353867441386
-1.9752576294515083 1.7713093200078618 -0.3958541884110727
-1.9155286898104495 1.7719122727674235 -0.38695797105364815
-1.9364306436255831 1.772654633906588 -0.39016938127606626
-1.9622980282633917 1.776516372873194 -0.39447229505679104
-1.7314234913364759 1.7730562694499474 -0.47072637153452
-1.8789230758006281 1.773077546589519 -0.38162798241918205
-1.86293417971622 1.7754005694074615 -0.37951190267367885
-2.0227594502176154 1.777041613365398 -0.2855903826856129
-2.1618335030040403 1.772238295589469 -0.18130910474991685
-1.8912959169823444 1.7704520358910472 -0.2691668129252792
-1.991658875067969 1.7702938839792408 -0.2812276497442037
-2.1390148355833576 1.7712304257530374 -0.1791173340926771
-2.034156065313874 1.7727969384579807 -0.16952105903478376
-1.9507080582349126 1.7727734218484266 -0.161885836714592
-1.9719556222879406 1.7732073314862917 -0.1638513589298403
-1.927952225609789 1.770951620443635 -0.15969453658251428
-1.9118644559605218 1.7733899738175039 -0.1584069806451433
-1.9753278588135894 1.7734110263112692 -0.2795276423321324
-2.2236088504726643 1.781942368578448 -0.18771719472630066
-1.9363560979409975 1.774629343090727 -0.2749414427476461
-1.920283133512631 1.777148253471204 -0.2732383419822234
-2.201899946666081 1.7830683101922156 -0.18575909325706033
-2.103133064033721 1.7758792763116045 -0.176091205492251
-2.09347685188311 1.7835790722160587 -0.17571198651572265
-2.016224821240183 1.7747738928434378 -0.16800853191951398
-1.9024400686339789 1.7800977916205278 -0.158023213555839
-1.8831518062599846 1.780041542301151 -0.15628196944646394
-1.8721098907328224 1.7703823253078939 -0.26687208296989673
-1.7074592486621263 1.772602136926829 -0.24767803945020173
-1.8560773812928606 1.7726409522128204 -0.26516785474339555
-1.6710980603992858 1.7717079383376015 -0.24337699221427156
-1.8123929692436187 1.7701828768544197 -0.14923725900221746
-1.7593608988404799 1.7725197655855016 -0.14469111076826258
-1.7224491495893783 1.7725096356440633 -0.14142895201730213
-1.7416625706321385 1.7731949377481866 -0.143176657453386
-1.7472620280840414 1.7752452757552142 -0.25257413211341295
-1.8242626097874508 1.776605690179423 -0.26175649035195936
-1.7328638858933483 1.7781570033226428 -0.2511611043600598
-1.6397869747888407 1.7737334359009165 -0.23996043317499618
-1.8556385464891985 1.7743454501383902 -0.1534037691131749
-1.7883736814289577 1.779868167675318 -0.14779610802431842
-1.4448304871721815 1.7574248026670165 -0.3172138236459665
-1.340476116039042 1.7419140098535748 -0.5004236186210158
-1.2291632023219727 1.7421762943263546 -0.4793636812619509
-1.2039185670092953 1.743957021519196 -0.47497761602643584
-1.1362101095054105 1.7425867503399681 -0.4622454955247254
-1.383173906979531 1.742272115119435 -0.40697315397445705
-1.1129600324700473 1.7444344429624539 -0.45835321852239547
-1.061073790635429 1.744595961189322 -0.35600037381340693
-1.3329701958728981 1.7476524935372224 -0.4999882649987718
-1.3181436848412624 1.7470098864314183 -0.4970446064250128
-1.1654776188010632 1.7454718578792254 -0.4681439685557257
-1.07838138437351 1.7493189504935405 -0.3594136944936054
-1.063585483109177 1.7450175975786475 -0.4495699220463156
-1.0546458160372434 1.7484953593771289 -0.44863051162115075
-1.037503735352923 1.7437080749778124 -0.4446709421808795
-0.9524631002448577 1.7441318625387099 -0.33962143430076125
-0.72445348105388 1.7444800648470107 -0.3921345658500387
-0.6634302162547904 1.7436579447448266 -0.38243574296534455
-0.8834723884902775 1.744120731585383 -0.3295650463402079
-0.8391969895153508 1.7443993401606945 -0.3232940205602539
-0.8180912542011565 1.7447022720998129 -0.3203695689214974
-0.9808178559974527 1.7476005077533547 -0.43544993406259636
-0.9593642380478014 1.7493075720924907 -0.4320551339534836
-0.9363341565366823 1.7496813072954849 -0.4281641482071516
-0.8437248079122078 1.7474007842553307 -0.41207595904884436
-1.0113737667548832 1.744382435618923 -0.34843571492489406
-0.777712343349257 1.7455547238122084 -0.4008779252935617
-0.9807292942946374 1.7495793023660264 -0.344716512136326
-1.3548023444816704 1.7454130593675474 -0.30329269738561326
-1.239104364783473 1.7430568654065128 -0.28736323228145894
-1.1749574867120742 1.746015467141905 -0.27927556311678137
-1.1601521153668075 1.7445505480269339 -0.277145015627461
-1.1101228133800447 1.7456920477122724 -0.2708149437551935
-1.0209077516438967 1.7434966193082613 -0.259179853654872
-0.9614451652814656 1.7435582350982057 -0.25180659884340495
-1.2017685424983893 1.7460429005643798 -0.2828054583022527
-1.098540753080754 1.746325460239053 -0.26941117782494894
-1.1391870423531572 1.7495084106238783 -0.27508494546561757
-0.9553808357505701 1.7492992199822517 -0.25187415970092947
-1.0865173350165178 1.7490168888784425 -0.17706554273268194
-1.0614408165361582 1.7490575347171688 -0.1745223761401081
-1.04684077680026 1.7468790064607924 -0.17280045046016243
-1.0746745921803322 1.749762212989029 -0.17594147435564134
-1.0113594505248995 1.7485435818896489 -0.16942588143929044
-0.9981813063168838 1.747567188867998 -0.16800556742907263
-0.9507114146284998 1.7464385212604885 -0.16319619391369206
-0.9037712495500528 1.7436155006242473 -0.24479406109410237
-0.6327975292474253 1.7446892563174223 -0.2953673612930341
-0.5007594399010942 1.7441256446348596 -0.2787933308656101
-0.8807916457619018 1.7432762413126115 -0.24198736884295155
-0.937736196888965 1.7450627116799553 -0.1617699021965862
-0.8152322093204605 1.7435838696910733 -0.23429819294755827
-0.6209989827777704 1.7443070395636155 -0.21272537869065108
-0.9281750448482915 1.7451567612037793 -0.24796720404735048
-0.9424315578141693 1.7479831117846882 -0.2501046779375158
-0.9056933323540222 1.7477950334680163 -0.15898774986705735
-0.8813009451073408 1.745935368885125 -0.15643514968059014
-0.7751298955661126 1.7468472240997106 -0.2301505726025444
-0.8622862800556124 1.7497199926576004 -0.15507406699104553
-0.8481915983188907 1.7463711226570544 -0.15334607232254097
-0.8367979041706965 1.745875219282831 -0.1522196461356828
-0.9462630598277694 1.7499649270875945 -0.33968972563187066
-1.4071889622030616 1.7500968025407075 -0.41211721573993765
-1.381585560986759 1.7532273961004388 -0.40834396573924825
-1.2524511962408265 1.751065813852021 -0.4853266690702413
-1.355468723937693 1.7567568459469776 -0.40457765661091455
-1.3514804689672977 1.7553286676204336 -0.304096484443494
-1.2777190101332125 1.7507450402185458 -0.39101561764621257
-1.264092249332926 1.7513454835387168 -0.3889122959675541
-1.2374518089704205 1.751719506675967 -0.38470054970104417
-1.398803002188454 1.7573733690052666 -0.31084010480334373
-1.4345701181274688 1.7599300654688574 -0.4181245816223587
-1.3464221466313973 1.761263568301991 -0.4037760885046748
-1.3285333809653472 1.758038877098609 -0.40037033588698845
-1.315092354148237 1.7585773394457378 -0.39826239073842806
-1.3031159843151872 1.760359087049157 -0.3965933755981041
-1.3259402825079198 1.7577816519887652 -0.30093841085476897
-1.3004115666693181 1.7600298126222431 -0.29777951720557194
-1.4184591414981798 1.7614807002324389 -0.31406448132518017
-1.2384333095544324 1.7651247021475054 -0.38694265271436457
-1.2106016549543004 1.7521372618928308 -0.38048963548064685
-1.0077297544026331 1.7512280958563782 -0.44085500768619995
-0.996275102521641 1.7515378899678 -0.43890787957261257
-0.8252386905154813 1.7507135797973505 -0.409689039919249
-1.1438754979532655 1.7519311750860485 -0.3699601175872061
-1.0417693961346752 1.7500726922859113 -0.3539600625098825
-0.911679297236095 1.750100193814222 -0.3346623623701405
-1.1972081576247784 1.7522406243780597 -0.3783836944242002
-1.2019822773823008 1.7546045263411008 -0.476554289348819
-1.1852701992696064 1.7535983926364374 -0.3767129263021616
-1.1614317084732195 1.7561348519316313 -0.37337064354416805
-1.1219053441143505 1.755067991073132 -0.3670454165228671
-1.1027170292487118 1.760771783119571 -0.3650056365051693
-1.1089536265357673 1.7543935429990856 -0.3649351047525075
-0.8749661431080662 1.7596398503055144 -0.33101293599436066
-0.8583340320446833 1.7535371703588283 -0.32758843069658233
-1.3050574756994808 1.751785813923977 -0.2973405180752161
-1.4134106524982968 1.7592450793282022 -0.21297694406530726
-1.3585365238928382 1.7506179121181955 -0.2060557879552527
-1.1984450385112269 1.7554206119042266 -0.28360718831834225
-1.3386657399114885 1.758542405186526 -0.20470567449464586
-1.2827200518187076 1.759276037475258 -0.19873944421057277
-1.2227376462493351 1.7548494863994195 -0.1918731362884109
-1.1942901882922976 1.753593846655147 -0.1887364599870856
-1.4288482812418695 1.7592629808782183 -0.21468794554821535
-1.3905498498384279 1.7648860980955978 -0.21103596489104642
-1.2311747163545137 1.7605377951762546 -0.28859946770455924
-1.2744280998420796 1.76259301031106 -0.29462325454401705
-1.3280998766292238 1.7616474655847634 -0.20388432212580757
-1.3009649984111744 1.762560688495458 -0.2010494882581895
-1.3160457455637704 1.763402025707049 -0.20276479063265124
-1.2585210884076752 1.7625473444685775 -0.1964997524060841
-1.1774806886516604 1.7628680615826124 -0.18798483600063512
-1.1539536915170752 1.7511064095970954 -0.27721609162096544
-0.6473274549955189 1.7507629633604098 -0.2983633954937322
-1.0777055797748132 1.7507096549339771 -0.26734848169104997
-1.0659008622581574 1.7514422245340964 -0.26594957320478685
-0.9199414136273122 1.7508080872597884 -0.16071397883310376
-0.8750953974630821 1.7515266446532343 -0.15650254572411473
-1.1525520794015556 1.7518085476236338 -0.18417771864296412
-1.1406000306133304 1.7528860970991142 -0.18305526090839666
-1.0068646277287754 1.7544629982552011 -0.25895264272592605
-1.1168054791763504 1.7661363271381092 -0.18206966972835004
-1.0406310406963972 1.7530477911409708 -0.17287008473675675
-1.000363405444146 1.7619552832616288 -0.1698662746513892
-0.9805795416432136 1.7535291686062873 -0.16694606421465102
-0.8168235226366112 1.7475643534478897 -0.15055590761652582
-1.6172279223904846 1.7604694344938905 -0.02743286495293555
-1.7780459636727046 1.760903752771307 -0.03703960891850653
-1.7988860608325363 1.762577586280935 -0.03838175081147575
-1.5953204897386626 1.7562756709781842 -0.025924090649185976
-1.5813462946075756 1.7580629098045986 -0.025203533885969288
-1.4582289295822035 1.7596540379763739 -0.11769666401822834
-1.5075944056025141 1.7618740088258196 -0.12204279748882048
-1.5232640060344766 1.7513857239675685 -0.021469856258932125
-1.9271606726893125 1.7609149971389733 0.0660257549911156
-1.5093935673073582 1.7528172488561546 -0.020747604314565137
-1.4986559782875841 1.756663877678752 -0.020341610167829368
-1.45232648250905 1.7568038825515988 -0.017704200727599883
-1.4783398619421102 1.7633001926680152 -0.11967425815059887
-2.081479271753 1.7640845752873258 -0.055913835954149636
-1.8791734002443836 1.766064385923723 -0.043446053046294814
-1.8598822175210583 1.7659128914677822 -0.04226140737558139
-1.8984367693783468 1.7661902359506012 -0.04463450039162249
-1.7619161469090694 1.7628606050661495 -0.036166140540317436
-1.6416655096265653 1.7644379223564632 -0.13376211890959586
-1.6930098628007118 1.7658918618640163 -0.0321981016827777
-1.4983931697267157 1.7669634643662102 -0.12165591922383676
-1.5577117859416731 1.7656636867098257 -0.024241453996379184
-2.122563782139921 1.7648099818925007 0.05943832861832339
-1.9500721041832827 1.7626427039659542 0.06522386596302994
-1.4771076530822194 1.764287885989573 -0.019529587368249113
-1.8352704998668306 1.7641029494046034 0.06890752977027924
-1.4260266845604483 1.7479729811829494 -0.015714278298161598
-1.4196550852196799 1.7556584018055679 -0.015786443664034956
-1.3690489497083582 1.7486882177757803 -0.10938845132194033
-1.4116861473858224 1.7597715463950776 -0.11380858039833674
-1.3797354774146957 1.7597634170578744 -0.013777767504304225
-1.3475605627537492 1.745259300983496 -0.011154693755633596
-1.3519094565840069 1.7616145383147015 -0.0123372632721434
-1.3035729764551296 1.7564012182359208 -0.009368797141353403
-1.3261671723047295 1.761940962226782 -0.10693206127724504
-1.3125944793624749 1.762354729686686 -0.10585784029532186
-1.3472662767284616 1.7679646789868888 -0.10914466526742357
-1.3048969026737012 1.7680737826888404 -0.10570144105653563
-1.4042295659793549 1.7678597105383662 -0.015610219020871821
-1.3397771331871322 1.7634507101904675 -0.011771421754876695
-1.7404603864616845 1.7628487927414054 0.07196907578237202
-1.6447397146069604 1.757852451511785 0.07513377865105708
-1.7546749334987293 1.7616628949904105 0.17845649654503898
-1.668566210545127 1.762725035048208 0.07423486099699186
-1.7933757679298274 1.7625778445453741 0.17831302606458566
-1.602548338346983 1.7637835508046795 0.07624719960364679
-1.5586342222970226 1.7552068003967929 0.07787277986563797
-1.5790592820251492 1.7582387700047164 0.07714593464718664
-1.695181382630618 1.7583811498476767 0.1786936982264258
-1.6191246491651539 1.7531951764561107 0.1789939153781678
-1.5895149495048633 1.7556971554369067 0.179056910129181
-1.668239366415301 1.764459217246478 0.1787129971694538
-1.5676785743422614 1.764268981019792 0.17902897688253075
-1.5455306829242421 1.7601027834420275 0.1791407021203201
-2.096172191142263 1.7636389705329987 0.17717211333333102
-1.7275828337283727 1.7669449772588581 0.07224924373195177
-1.622922000236497 1.7667695262820395 0.07552037037440709
-1.5569485903851263 1.767075048344169 0.07753192938513659
-2.015656482587161 1.7667327016271637 0.17745719570934243
-1.7224403193038045 1.7651944910966932 0.17852650579304924
-1.994344399914883 1.7663902770486175 0.17754149342281222
-1.81743599438155 1.7666669918478874 0.17818460557129367
-1.5330352867945196 1.7630148527608684 0.1791443146657713
-1.4962768331181038 1.7567036922509418 0.07971162007492963
-1.4125616097564992 1.7517613724281422 0.08237147893253688
-1.3297043439252987 1.756675819544346 0.08461835039765146
-1.4587433737240156 1.7532882411505193 0.17946747636297475
-1.373774216079022 1.7460721424734815 0.1797785278085638
-1.4292076056518968 1.7545932655087029 0.17953150095702808
-1.5097292279413488 1.7569746489979936 0.179278764410563
-1.497408948996901 1.7595590573696183 0.17928418194654225
-1.5257706438298946 1.7678182444480774 0.07845518822466697
-1.4669535884376856 1.75800432617263 0.08054689775174609
-1.317601673662851 1.7583988047164565 0.08490623773194139
-1.3632123990072067 1.7606529477184267 0.08351243461814681
-1.4591568688393577 1.7643836218383693 0.08056310730940983
-1.4913077605631406 1.7671228225385438 0.17921714332568187
-1.373638665513809 1.7586018831615833 0.17963064801509732
-1.3291703190241464 1.7581725112922382 0.17974302174284537
-1.3185668278207945 1.7612036742486685 0.17973294711684343
-1.297179408764683 1.7673265702135497 0.17970818193053295
-2.122582791552407 1.7667780663836727 0.1770355434026241
-2.107934608446315 1.7670790255832944 -0.057720569648661825
-2.0651454417778936 1.7673918502886308 -0.055042376510182525
-2.0437991372865136 1.7673609622204276 -0.05370432113279977
-2.0291694386794754 1.7715575544591118 -0.05299125128502761
-2.0028805420509403 1.7680081609833451 -0.05118186020531469
-1.9832368799234357 1.7687960949100696 -0.049998102831034306
-1.945565809309633 1.7713206610801973 -0.04778948017617324
-2.1605076722091936 1.7733817201721103 -0.06134010710197756
-2.2088095629402065 1.7749272254429058 -0.06448147080036919
-2.183689198326709 1.7738666551842253 -0.06283446981097111
-2.1410101060814544 1.77445185323898 -0.06015698986692839
-1.9701560464404557 1.7740430243520375 -0.049444527611177805
-1.927715757353523 1.7727960277959498 -0.046763057282102165
-1.6637396567848763 1.7681818291556894 -0.135962926692289
-1.4378390113891495 1.7687475446610783 -0.11669979685267533
-1.6308068832848805 1.7688652954258202 -0.13314892682811985
-1.5824411962473508 1.7697458630750558 -0.12904053060367307
-1.3654216241313346 1.7712692640026144 -0.11090191869107259
-1.8470641069643599 1.7703571792410977 -0.04170392193199781
-1.7137121693933937 1.7680767777948383 -0.033546439863181746
-1.6167976987407957 1.770813862929254 -0.13208195798473632
-1.6891117530629813 1.7740928359833419 -0.1386196716681747
-1.5587064430490947 1.7774421667027296 -0.12759084388575548
-1.5401055728951136 1.7753044984379696 -0.1258432656966439
-1.8359471179220146 1.7757814905007099 -0.04130517731685751
-1.7554939141344013 1.7717418323128653 -0.03623925409160685
-1.7409859134283607 1.7747247715063441 -0.035524949711142624
-1.6787466693408584 1.768350896436847 -0.03148101530395461
-2.061791683729752 1.7672406631223423 0.06140053468951084
-2.040418023172751 1.767175449336644 0.062113023511840344
-2.0027872038371792 1.7699518614508676 0.06327556176159241
-2.211979235182845 1.7668376989019798 0.17667418151649286
-1.9582354783109852 1.7701345742770451 0.17764069235748253
-1.9174341292308366 1.7698135612312476 0.17779447311447147
-2.0882446308071843 1.770416095086959 0.060428523937744054
-2.1539165372054243 1.7712316001551336 0.05820190161185535
-2.1954555434841847 1.7708279870219579 0.1767031710801388
-2.182176891736935 1.7749872691092996 0.05714549440692928
-2.207335139596603 1.7760828053150215 0.056261424611818094
-2.1130716259143547 1.7723486141699019 0.05954020497701368
-1.924201305405048 1.7724126121325665 0.06577776738522818
-1.9047896692885247 1.7725048165786916 0.06640796869514921
-1.9930880845168615 1.7773677200668065 0.06337727239133703
-2.1771007622241103 1.7738954558144628 0.17674913100084527
-2.088211439950441 1.7724097778024688 0.17711757180205304
-2.0684646719161885 1.773549322112761 0.177185741607982
-2.045382358564103 1.7724068528952233 0.17728675492723137
-1.894739057275185 1.7675895936585104 0.1779008353577849
-1.8033803723058492 1.7677240141989752 0.06981750232580108
-1.859567303343098 1.7676862633522548 0.06801503210031548
-1.7695468038801936 1.7703693220733923 0.07081297212051085
-1.7147910993819553 1.7708581848781495 0.07253038155479624
-1.6613055530686112 1.7683410181905277 -0.030451420762442432
-1.451269721055636 1.7708178055560766 0.08058263933579916
-1.6571724103475267 1.7692007376209775 0.1786987179859305
-1.7482591998425965 1.7705241071182436 0.17837966701482946
-1.3579542776358238 1.7707591979450417 0.17952396712982746
-1.7889710404853465 1.770725693607833 0.07018489904247245
-1.8274464292776935 1.7717647037679667 0.06892252708540147
-1.8887722449283022 1.774644848217645 0.06686145874172861
-1.6988667535715423 1.7722242243734725 0.07298714507476824
-1.427150850047483 1.7746770143036108 -0.017286186932885146
-1.6481230152966784 1.7732538408972018 0.0745355601874923
-1.8610147365612508 1.7706821690602053 0.1779908311278999
-1.8465248765108835 1.7739726562868854 0.1780059044224669
-1.7870862030916737 1.7713943984254412 0.1782405623534574
-1.3630110657429355 1.7731489983683086 0.08308600748739241
-1.297758849981947 1.7658169686782306 0.08521314559599567
-1.017181588714569 1.745910836567718 0.006381805829566871
-1.0806531756203441 1.7473105832716926 0.0030551258345173395
-0.9969072382674911 1.7482789955834226 -0.07999848029936595
-0.914450208342084 1.7469518779477755 -0.07381620699077267
-0.8784384032452996 1.7448621709979106 -0.07103536140193373
-0.9376757100831736 1.747065927581036 -0.07551881922199412
-0.9689497040213212 1.7454378745703862 0.008824970472078468
-0.9560360014108321 1.7439670269078085 0.009561356682682957
-0.9328111866619064 1.7439323230720492 0.01070289536740486
-0.90957801039501 1.7437449381085732 0.011848811754873232
-0.8558497036674109 1.746702088113303 0.014231277482771771
-1.157456496186651 1.7480458153360388 -0.0009984272361302502
-1.1320391401740693 1.7487438013094103 0.0002937412789268022
-1.0954050955945256 1.749348273482937 0.0021658252999175874
-0.8709075914158214 1.7489698779042162 -0.0708760696388521
-1.070194632830664 1.7493926345994941 0.003464961394075575
-0.9962462785228675 1.749614974827738 0.007199382729058599
-0.8355863954866591 1.748654642733102 0.015061490609471389
-0.7614787419609736 1.7453589624860801 -0.14520593201389578
-0.720319880992883 1.745995053298861 -0.14158172151921233
-0.6004327334605976 1.7442073946065844 -0.13098128446869195
-0.6600216158449268 1.7459916551519137 -0.13628601707188415
-0.67910940516174 1.7469748888475756 -0.05758232718915584
-0.6384344893669845 1.7459269758886051 -0.054850406501000495
-0.820347333283439 1.743447325127437 0.016117905345910774
-0.5343356005946382 1.7462390949117192 -0.048413183084928965
-0.5152861621045006 1.7450747328583678 -0.04715522896490412
-0.7822728125393464 1.7472157755679918 -0.06451666942152215
-0.8078721820509213 1.750070951344209 -0.1500286169786994
-0.7427566576553156 1.7480624812059078 -0.143843617023384
-0.6921030672857895 1.7484028222324075 -0.13938541615685265
-0.7622860745823098 1.7484662475033805 -0.0632670939920646
-0.7309988746453442 1.748572598114687 -0.06116677684549198
-0.5924937070537182 1.7482373998925813 -0.052178193667696215
-0.41113175179732236 1.7501813352043427 -0.04169796577128004
-0.7586815817407025 1.7462991590259958 0.01876619830947034
-1.114631938601999 1.7461287763620457 0.09099521529611622
-1.0408880163860208 1.7469967822110837 0.09292340558767899
-0.9920673716099979 1.7473147004330793 0.09417913216897039
-1.059634118766007 1.7429637007012768 0.1804803270733216
-1.0373530739157533 1.7454655445992746 0.18048583301954785
-1.0136330471750261 1.7464041592950605 0.18050818155280793
-0.9769670731065566 1.7457581779676163 0.18056916465731976
-0.9086545516549108 1.7468674476301704 0.1806363464748734
-0.9202857312919308 1.7470088603163925 0.1806182913913995
-0.8650280989885715 1.7486727010497316 0.18065114555975012
-1.0674342244947015 1.7486804141754317 0.09216342281692137
-0.935432846877851 1.7487885849556672 0.09555506553074027
-0.8787236753330864 1.7493355228178906 0.09693434314925668
-1.0786273792676877 1.7493499073348544 0.18036937635942188
-0.9565994425534057 1.7486021695833822 0.18055638857765857
-1.1037788117915706 1.7493750337189258 0.18032484713533323
-0.8997518875338373 1.749610294251467 0.1806059257269102
-0.8631675214592296 1.7445168402672213 0.09750380692444202
-0.6973283248897884 1.7489233017098995 0.10115973978909808
-0.5979596119247587 1.7474512429992168 0.10333447025936873
-0.8521740300259965 1.746742915557482 0.18069137981604114
-0.7012454503122189 1.7435595264495367 0.18081382658670866
-0.8104492765035014 1.7487596424753988 0.18069215316043957
-0.7562149730764727 1.7476120734974863 0.18073898344936118
-0.6939534846034418 1.7468508462740364 0.18076718663735483
-0.7887920488441599 1.7489067982756044 0.1807048499923158
-0.7100122603156581 1.750157269918932 0.02068014999984759
-0.6593890523456517 1.7495854486363305 0.022925578089670936
-0.8023243491038404 1.7500677426774407 0.09872897370332662
-0.7261482630711651 1.7491049591546965 0.18072817511276124
-0.6379781235651852 1.7497509241689522 0.10240389091478924
-1.1307614888938238 1.7495280785867486 0.09043679898767071
-1.1891067964760837 1.7507959908948996 -0.0949943591108275
-1.153072686088428 1.7543205311803958 -0.09246027254762938
-1.124930752634488 1.752123617530297 -0.09008198498377143
-1.1118752560886027 1.7513376188491074 -0.08900152799965501
-1.0749759579818554 1.75209414348343 -0.08623057254203202
-1.0617056009002246 1.7513577857729028 -0.08515479187338396
-1.2884020494154165 1.7555093918514628 -0.008485204004228723
-1.111439969878775 1.7528830506864954 0.001118311314300287
-1.1782029726960535 1.7550873721267632 -0.002521748355341784
-1.1814365533525462 1.7561016873766602 -0.09483629084278901
-1.2699078675143447 1.7625256852958817 -0.10241964123395035
-1.2593750384444482 1.7653074846041739 -0.10180293316173646
-1.295486386911345 1.772679267438795 -0.10531717070004457
-1.2249282048553467 1.7588672714236535 -0.09851219025257506
-1.0981955395647087 1.762505787265388 -0.08891129917342473
-1.2157587217913728 1.7629609593291662 -0.09812521014888004
-1.2805167146091452 1.7613760007950074 -0.008398627202834403
-1.2533151086409196 1.7618159366228838 -0.006946939679631869
-1.2067214622115998 1.7566346536276076 -0.004133434009219216
-1.196096029856586 1.7592957490753618 -0.003726345064321029
-1.2368280752837708 1.759211991441647 -0.005904409240618936
-1.049294937498272 1.753408901356165 0.004285260157724976
-0.9069025778928833 1.7511939195712898 -0.0736574833467137
-1.0366498474838364 1.751079010055887 -0.08322830689416057
-0.8607275002478701 1.7500776479488767 -0.0702556168917215
-0.806202356182468 1.7502881746645131 -0.06645357534904671
-0.7548063987180936 1.7521138488335046 -0.06310586555061526
-0.7056136140598104 1.7527909962118582 -0.1411192235083098
-0.5132695094256432 1.75337769383713 -0.12504091186413863
-0.49189452522041843 1.751580797055008 -0.046436138073526534
-1.0108200627660984 1.7521340340003195 0.006311490286698531
-0.9293323179380866 1.7526250399275738 0.010315339371609375
-0.8815739914870496 1.7504103014223307 0.01276667701506653
-0.9677242468446042 1.754237809169075 -0.07836816921997404
-1.0170327085990136 1.7564242176139508 -0.08222606068645026
-0.7654064142826588 1.7626810902322094 -0.14767528301621782
-0.9575055528576258 1.7556978606358322 -0.07774538336231024
-1.0402575134035077 1.756759153190393 0.004534378596356062
-0.9006778251836233 1.7568783349511192 -0.07372530063597459
-0.36359440744700844 1.7564277219737587 -0.03977446511308306
-0.8700251705572023 1.750075868343934 0.013338863518813077
-1.2538214914756665 1.7520255014404105 0.08694267171199031
-1.1605652601207588 1.7529803174252725 0.08949695688437469
-1.1101695139644228 1.7536149239249765 0.09084197083754857
-1.2262039741864184 1.7535222134706345 0.18003441542845425
-1.209659563022752 1.7508610478972464 0.18010422080844923
-1.1705074083783091 1.75187869817446 0.18017019776275972
-1.131541169409357 1.7522817651084757 0.18023910139961483
-1.148545811403481 1.7540452308164765 0.08978763602153365
-1.271945922345665 1.7557515542878162 0.08630141748816604
-1.271083301181066 1.7695178912020695 0.17974127093835376
-1.2371494026570897 1.7615053530243716 0.08707212764912788
-1.1890436655758791 1.7547416273123293 0.08865108290799739
-1.2055303565671582 1.757536193437968 0.0880961017860448
-1.271351137831999 1.7572376798120803 0.1798924130175482
-1.2456820375140598 1.7588550207655058 0.17992901770042252
-1.1898752551331857 1.7575191309758842 0.18005946103612244
-1.147891297779834 1.7554302311948056 0.1801668197405245
-1.0940903767728458 1.7500782177669687 0.09140106836606623
-1.0569739992816578 1.7506981743457664 0.09236369462336591
-1.0080159379758302 1.751324074112754 0.09361399503610988
-0.9846274455440304 1.7517126583174707 0.09420025735244529
-0.9730419754806507 1.7517414753730385 0.09449245845228262
-0.9927304002549531 1.750009753559666 0.18049082150051818
-0.948478619364765 1.750247620463358 0.09517390221013458
-0.8894977660728111 1.7508395348101047 0.18060005413311417
-1.0562674220681973 1.752018012175955 0.18037018626084583
-1.036081918906652 1.754576036156337 0.09276492640022303
-0.9175675511394615 1.7544677308385765 0.09577940924229177
-0.8929820403126466 1.7525949196680985 0.09645843025742741
-0.8180999404176967 1.7533230314407457 0.015565557444987946
-0.8520767445893996 1.75706222926557 0.09727246355199154
-0.8472887240277913 1.7537453616484182 0.18059972797734708
-1.0086636596115952 1.7540556806612468 0.18041760015676958
-0.8371970948805805 1.7546352672664882 0.18059567136570978
-0.6691896213640964 1.7537037731782166 0.18067199536164377
-0.6371715072837044 1.7254188022475077 0.18107506604534826
-3.4078778368509046 -0.44395998262005537 0.4686146312344153
-3.408221065412806 -0.5313179076339567 0.4691849657926627
-3.4139153315082362 -0.5173483283352075 0.4694462627824919
-3.4205864841949283 -0.41631132891827083 0.4692644816369125
-3.4088138922647193 -0.34246912068047974 0.46816162245076565
-3.413662104750826 -0.35737853070173853 0.4685354120693366
-3.4052994280566797 -0.4294537941485951 0.46837148662530603
-3.4033085918457364 -0.38560767186044376 0.46801711661011863
-3.396573456680188 -0.37052759750675385 0.4675186026124544
-3.4175813572216107 -0.5030998817792222 0.4695857973169307
-3.428224508536298 -0.548494577739081 0.47055648951881035
-3.423180348499115 -0.4890694961653647 0.46984655272378945
-3.4145976601706 -0.5761994014644385 0.46990017825360536
-3.422779838031782 -0.4743483195932246 0.46973138395924513
-3.4258126017287567 -0.32916620022426357 0.4691737433625699
-3.400534129650111 -0.25501087464414796 0.46729939344637333
-3.406820942354836 -0.28428693637257907 0.46779779878144856
-3.4003647065869695 -0.16900703735523318 0.4670476035458166
-3.3977273518617466 -0.2692560280390071 0.4671701221306573
-3.4049331083395384 -0.3131573109665697 0.46779254683440086
-3.421218464221304 -0.19873614924123428 0.4684395935676519
-3.4177998127477416 -0.18408797301270097 0.4681856910236451
-3.396670483580938 -0.21214899296285153 0.46692394276627924
-3.356041794705332 -0.10973798459546406 0.4641379989586646
-3.348793334664886 -0.05335147849962705 0.46361610658834834
-3.348681108367103 -0.06753397658942623 0.46362080987746973
-3.3657036388266817 -0.12449267582398267 0.46477018553623756
-3.3880277564761245 -0.22617666431871283 0.4664172468150692
-3.385335267139815 -0.2401230712940361 0.4662910312874234
-3.3728997817523667 -0.1537267325443097 0.4652788834250954
-3.3612123321267418 -0.0522076154081889 0.6080533049614377
-3.3548436600596334 -0.03947885966789613 0.4639856880504288
-3.356819168173944 -0.011267154890205874 0.46410051904759886
-3.355568186028356 0.07430753593038299 0.4640454327392887
-3.354605802861071 0.017238698154705096 0.4639571676946341
-3.3599641435986416 0.07571584977406964 0.6079800682199757
-3.4668535014617476 -0.31623774526518983 0.6194179846990944
-3.4162632686605257 -0.2263308495747932 0.6139524511611891
-3.4380415874337817 -0.29963328905711417 0.6164879610806132
-3.412826921799367 -0.2545233777399197 0.613752943834096
-3.410029541376773 -0.2687875914593017 0.6135551184576276
-3.4010227218205795 -0.21113916128710186 0.6123858655578428
-3.4048186937082145 -0.23879606938489625 0.7592611766193211
-3.4193073680625132 -0.297233009143447 0.7616367308153542
-3.4151479333058408 -0.267896464493756 0.7608471178526576
-3.40947653028878 -0.2248044509506579 0.75979379258973
-3.4119948968461093 -0.25331557938139293 0.7603196027634114
-3.4160796276489873 -0.2105967149122395 0.7605872041322759
-3.4101551796738647 -0.18258358217681472 0.613169943719901
-3.3852692372928845 -0.1528850739125152 0.6106211951451737
-3.378653735956043 -0.094985008506218 0.6098284462077573
-3.4146471017903237 -0.1682701453682729 0.6135597181131638
-3.4147102988148146 -0.19604162773759315 0.7603247649765633
-3.4098378490121233 -0.16688520761360134 0.75952602233188
-3.3845389061414073 -0.1516423605328736 0.7560779651824802
-3.3833296936043777 -0.12238606369874507 0.7558089314053205
-3.3750368522176486 -0.06653911413423903 0.609425341188824
-3.373213032537167 -0.03830067832875231 0.6092193645420808
-3.374422013492915 -0.10890150951780857 0.6094416775432434
-3.3732234480482517 -0.024264993251447403 0.6092149177473676
-3.368140922502973 -0.12329536618679804 0.6088559828187082
-3.3519245915901603 -0.10726306722889961 0.7515642942139402
-3.3591857679444934 -0.1364917518254225 0.7526301298744209
-3.368027503612194 -0.09360504050604694 0.753682424480494
-3.368477160668545 -0.06398141427081493 0.8999451853386732
-3.364853234562204 -0.14983608958137715 0.8996315297474143
-3.362435690791406 -0.06517601811449766 0.7528766029652008
-3.3645220595299756 -0.0510054283270948 0.7531374534205153
-3.3507055576464335 -0.023029799664608122 0.7512665513081775
-3.3692039429984093 -0.009947663633879476 0.6088154530041339
-3.3687887829226777 0.03298069636715568 0.6087899212132586
-3.3651349426688375 0.004324932939746608 0.6084160180787818
-3.3725303917441902 0.04737302732999293 0.6091732431694998
-3.3666106533880815 -0.007420620985794981 0.8995841760734969
-3.3645421670636226 0.006868424102358557 0.899244292690784
-3.362465153976838 0.005576090175445813 0.7528443943159357
-3.3546285234530875 -0.00874809374688345 0.7517920406944413
-3.3482553816096408 0.033952314295882455 0.7509707807498797
-3.363234952427927 0.07710006110318655 0.7530633427399693
-3.361512912169696 0.1471140655933146 0.6083124450570792
-3.361878258360911 0.17323303329770212 0.464591666023316
-3.3571487351584515 0.14566079435031185 0.4642407840984186
-3.3602451400729123 0.17455022881782364 0.6082867575367117
-3.3674244556220856 0.18997683797841605 0.6090543769167557
-3.3660711128131684 0.13314090900404113 0.6087160502542597
-3.365108221239548 0.10446914324441837 0.6085451242337925
-3.3626367848795176 0.20453898761410552 0.6086477695712122
-3.3569858306113725 0.2321454660196839 0.6082188239531363
-3.366959940323847 0.37539587073298014 0.4655984815304732
-3.35691587931371 0.2895829142177015 0.6085428259699676
-3.3560752602967208 0.2460652877804179 0.6082043644279443
-3.3565815159227115 0.3182820775522094 0.6086982718692269
-3.363975123007702 0.27547844075858224 0.6091454139182876
-3.3659558089110946 0.3479041688925451 0.6098337620445795
-3.3632775159913266 0.33325873051072336 0.6094622753727151
-3.355314488601977 0.37563948680668807 0.6090073600502411
-3.3544356291786683 0.4038038499841212 0.609159413429417
-3.3543212867894985 0.20274682500059868 0.4641837880897065
-3.35374114621095 0.2445734990769945 0.46426116220022373
-3.349200415611129 0.0883873710705804 0.4636586919981919
-3.35031451726198 0.31635528846989786 0.46429446855162526
-3.353609067398137 0.08981518415884002 0.6073834424133719
-3.351813703677623 0.3035358480894365 0.6081299901333448
-3.3510742781053198 0.330778472460157 0.4644014592776987
-3.351264972270694 0.4328050409642893 0.60911415676337
-3.354118201081168 0.6780473747050606 0.46678459882883194
-3.3550381344028386 0.7072909846296946 0.4670982014613704
-3.352455170301092 0.7214904952170031 0.46706223495884
-3.3502158533868958 0.4756116318380688 0.6094305066396309
-3.352330239250945 0.4907653205189294 0.6097944188454965
-3.350585745350916 0.5043117367547012 0.6097711830980626
-3.348817597781886 0.5325014086518618 0.6099127172288551
-3.348620974022793 0.5761362360952855 0.6104115576077747
-3.3767145973123913 0.09179508424015397 0.7549060653926966
-3.3579475659381672 0.11983388343656759 0.7525008577146363
-3.356823567024951 0.1481805726172871 0.7524759230246866
-3.3555126718483668 0.13536883420026533 0.8981491203228439
-3.370349101019505 0.10727012927587119 0.9005118681486918
-3.3652793620154773 0.07845604514808968 0.8995314649451222
-3.366854517260017 0.09281576552020204 0.8998549015918375
-3.3667487952336406 0.14988148000967488 0.9001420232900859
-3.365827022185504 0.20737112257469995 0.9004174233525165
-3.364503895144896 0.5638220335242905 0.6118088284987404
-3.36093860126227 0.7099356080744752 0.6134474228042542
-3.3547209251597216 0.5478437114926842 0.610665297647814
-3.3595712356214666 0.6949444321199172 0.6130889734501864
-3.3628908790740484 0.30583240813838314 0.7544126051649941
-3.358899130896691 0.3069030018900789 0.9002948692659652
-3.368896630092884 0.7276380440118698 0.7618393086076939
-3.357429646065663 0.6673521996974928 0.7590644911637822
-3.3521741529150333 0.29059919105560644 0.7528436733033163
-3.347624598224904 0.17531866825282585 0.7513893123780808
-3.346340007903233 0.23279537389571145 0.7515873091804411
-3.345427974068691 0.2466848686506576 0.7515729482933217
-3.3480213070101117 0.20502459197359837 0.7516231948397705
-3.3511613688238815 0.2191602406318574 0.7521353479180082
-3.348248990478712 0.29167904014250495 0.8983102638378184
-3.34932524582587 0.2757989004761004 0.7523311201518229
-3.3459726882470706 0.36326457849940236 0.8988780628356282
-3.3485598667377494 0.3763625865261758 0.7532497338681542
-3.3520826574221276 0.6063919921402083 0.6111334512584479
-3.35157352521318 0.634957514586989 0.6114643343185399
-3.3511377801473636 0.6498961594175432 0.6116267104740574
-3.3524794473174535 0.7230501566699836 0.6128253336344794
-3.3461298587677395 0.7088403045011902 0.7584348972184486
-3.2700532196934886 -0.23531279445288006 0.3189803472632727
-3.267992342559135 -0.19361139227634072 0.3188705438379846
-3.268531499088583 -0.2628553292340312 0.318978767804496
-3.270382892670992 -0.37521818633061405 0.3192228703460961
-3.269844856239745 -0.3049770649627149 0.3190802647883351
-3.2793753097027714 -0.20808837949070896 0.3192094187080907
-3.26914713741663 -0.38918143126563115 0.31921944817865916
-3.2678158040411254 -0.3328813263986249 0.31907470988562064
-3.2693251709754434 -0.2489261435010956 0.31898097016437826
-3.2730452549672155 -0.16584839786376676 0.31898134332373057
-3.266280666620406 -0.12338042085449888 0.31875108518228584
-3.266183007755756 0.07079314127019268 0.31865879468665337
-3.2633309038199796 -0.054016045968986 0.318615844393897
-3.2668463667720413 -0.09552143098734765 0.3187446714537243
-3.275301060521796 0.0011210145169528235 0.31892868652577333
-3.271213826308608 -0.06800461491927688 0.3188466784029043
-3.2695047736294165 -0.15174940898657827 0.3188665106880527
-3.2625074162311196 0.05675630172344868 0.3185565595328366
-3.2546018780733372 -0.10888176588139895 0.3184073940891795
-3.2470119537958526 0.028666864844852945 0.3181248532288878
-3.24782806742863 0.08421786384295722 0.31814224183180306
-3.255416565491195 -0.026835885181232453 0.3183798937086004
-3.2593852971961366 -0.012907067912549296 0.31848726716302667
-3.2551831797379482 0.014886479737060886 0.3183595939906676
-3.2587826156854383 0.042763513587493626 0.3184540152586689
-3.258933301817068 0.1123944993551603 0.3184570602440298
-3.2452912501045725 0.15287340629022358 0.31808350375664374
-3.2446660301969317 0.16609855980216665 0.3180725762761299
-3.2366588489903205 0.23544678539775432 0.31787986749573893
-3.2437141782850922 0.2495177748029855 0.31808776470184846
-3.2511215692068154 0.19562053313879568 0.3182648659892228
-3.260415694763091 0.1263965950838708 0.3185030441945872
-3.2546566176354257 0.2646150943916042 0.3184105119611314
-3.2543271652750008 0.2094075891515367 0.31836278354473324
-3.2787660478294867 -0.29153685315078476 0.31931162205614394
-3.347374935104005 -0.13866709988342735 0.46363906221039286
-3.346206328991532 0.04560440846733354 0.4634366518407213
-3.342447111464803 0.03131059744987923 0.4631940023773931
-3.3403300109866554 -0.09556012628127755 0.46312315589976555
-3.340885288066756 -0.025550966434424012 0.4630992838268276
-3.347754960218365 0.1311014102137737 0.4636231905886435
-3.3440499544800923 0.04813064397363387 0.7504339379092289
-3.3406070929692477 0.10497867892903583 0.7501242333005418
-3.343540003350388 0.13356934553460034 0.7506334657225717
-3.3415559079159647 0.21593558537519686 0.46341455721262553
-3.3428274713725235 0.25784954607942073 0.46361172533789835
-3.339186315844182 0.1870749653079268 0.4631903562500089
-3.3466782295694903 0.23016035786393857 0.46377226914401587
-3.3428921379905283 0.19006853060239287 0.7508410207661776
-3.343768228346836 0.27257428905503517 0.46372196665219134
-3.33860483920429 0.15839477638097105 0.4630930630237248
-3.2757703378817626 -0.5162723445394998 0.3196952061309564
-3.2680908767822046 -0.5295074521661584 0.3195165251019264
-3.274699036550987 -0.47366360102879795 0.3195620654973408
-3.2705486384564164 -0.5723952316640142 0.3197007645647736
-3.294222307778407 -0.5613323885060062 0.3203339599868236
-3.283051867712257 -0.4887652031803206 0.31983297279837586
-3.2686240472569317 -0.5863581408449918 0.31968760689653025
-3.2762316027839087 -0.544723749108061 0.3197833894281521
-3.2796975945814686 -0.44593029183671196 0.3196346833144468
-3.2775457966808657 -0.36176529434195903 0.3193991428973872
-3.273835192813945 -0.4036840474435527 0.3193775336296009
-3.2806790572681157 -0.34793152474830663 0.3194623398198924
-3.3347801166876643 0.0028200998358696022 0.4627041024330825
-3.3363187119098567 0.11643265902737808 0.46287765509319034
-3.277118455600445 -0.4318796401668038 0.31953062434858986
-3.3446601182505513 0.28724800095053216 0.4638284072858835
-3.3438335829904657 0.3444654507077942 0.4640021026083595
-3.3327738532607962 0.4147643370319527 0.4636437249692724
-3.3417333850243027 0.38691249338561723 0.46406480436656233
-3.33257170770715 0.35774591511604553 0.46335161560064286
-3.250900334951002 0.3345831559403061 0.3183696529623354
-3.253589236330204 0.3488559767228545 0.31846411375779027
-3.337129008861247 0.4298254905125477 0.46399588533546743
-3.3455004112365803 0.4444671376013455 0.46460236393966986
-3.3361363772937445 0.47235121292468973 0.4641760965935656
-3.3342985291509732 0.48706448206163283 0.46414806651697615
-3.254309866107908 0.5591376730313965 0.31882727549551604
-3.2540792553153906 0.6732100504676469 0.31908894301595725
-3.2516051752512998 0.6871146765879619 0.31905446495867856
-3.256952632962182 0.7024209718163849 0.31924468257693894
-3.346607046654208 0.5162095419171957 0.46510376136677245
-3.336777461085293 0.5438170745440777 0.46467330679129715
-3.3427032765480407 0.5301708519903434 0.4649501716389121
-3.336627431354872 0.5728203354380299 0.46486626988552004
-3.2499593656230674 0.40429497007379295 0.31843384412811127
-3.240532293502522 0.2917803443400097 0.31803336484205313
-3.241383727257275 0.30579034829313084 0.3180735512552148
-3.238962337120717 0.3750666699187183 0.31808527277489196
-3.2389439984343236 0.43074440739982245 0.3181644270030084
-3.2354089124367253 0.4437103483635077 0.3180844901910131
-3.2284366403466223 0.49897420035143264 0.3179835680269561
-3.245517593982736 0.3894235780235433 0.3182867060099495
-3.2376194089766064 0.4587299634274037 0.31817077154516127
-3.2378003496630265 0.4734473374119725 0.3182023750376172
-3.249991881888097 0.48840654239391096 0.31857147953695475
-3.234558200747487 0.527971246985483 0.31821116272747896
-3.232513132362498 0.5136021931431959 0.31812671969002737
-3.242485360060096 0.5432330914210822 0.3184629584933014
-3.244274337560624 0.5721952278729238 0.3185743319246571
-3.239991159649733 0.5998833034268896 0.3185154624102534
-3.2282771342172163 0.584225896036424 0.31815434471827897
-3.236744112712677 0.6562434829092741 0.318559121045748
-3.243746973448371 0.6143632951133058 0.3186543912891244
-3.2453651776789956 0.6292314886538473 0.318735595600499
-3.244615470242707 0.7141500521847141 0.3189325354422965
-3.338396918639883 0.5879719210783908 0.4650880123284298
-3.3459958105511283 0.38874160541051256 0.6082033791091904
-3.3421540514778973 0.4594560878950294 0.6084798077955218
-3.336022939742301 0.3179293559125031 0.7509489515428817
-3.3367643432188974 0.3323135096456689 0.7511934215965556
-3.3374558881319456 0.346689527783474 0.7514415104661908
-3.33506676659162 0.44603168170311475 0.7523445798513929
-3.3346474177082346 0.4323090365343894 0.752102454379441
-3.33778049902144 0.505475819563843 0.899975771001326
-3.3464311832296714 0.5907381702598092 0.6103828419800987
-3.34801620368625 0.6042628530545616 0.4658140840366053
-3.347119934572381 0.6476497855229624 0.46609810843707045
-3.3463301828704437 0.6782293340025809 0.611559905656101
-3.345788285833952 0.6909370932186715 0.4663773558005549
-3.3360977445001456 0.5322409444469121 0.7537780566162943
-3.339660994598198 0.6314533477521264 0.46550042114872187
-3.3351778968372243 0.619452321696774 0.7551901157127209
-3.3442117150598647 0.6503231726739259 0.7569797279790099
-3.340871281817061 0.6932046493305686 0.7574107813806549
-3.3394126172987635 0.6785608997200995 0.7569133595731985
-3.3339479916176398 0.5035534276234565 0.7530350438423826
-3.327965568973727 0.4438157605578798 0.6069399002177246
